# This PCD file was generated using the MATLAB® pcwrite function
# from Computer Vision Toolbox®.
# .PCD v.7 - Point Cloud Data file format
VERSION .7
FIELDS x y z
SIZE 8 8 8
TYPE F F F
COUNT 1 1 1
WIDTH 466
HEIGHT 1
VIEWPOINT 0 0 0 1 0 0 0
POINTS 466
DATA ascii
2.812502429921954 0.874381738308273 0.466487574749968
2.822237668600786 0.878488818257994 0.362926904660529
2.821340650167522 0.867957716285904 0.362439427286909
2.820279224622894 0.855791119923897 0.466800443680049
2.820554472862721 0.856949970283020 0.361951949913288
2.813788019743925 0.843106370575649 0.465236099029647
2.829380803178541 0.848316681271820 0.362683165973719
2.811386858918320 0.832237021764641 0.360002040418806
2.827334137657510 0.825163630221520 0.466487574749968
2.835234172731259 0.828543364523651 0.362683165973719
2.816909960031801 0.811461715531816 0.464297492239405
2.828572398809593 0.815890691075811 0.361464472539667
2.830844711798935 0.805853188449204 0.466174705819888
2.819807565761958 0.803243314921399 0.360002040418806
2.852442602889276 0.800174152734168 0.575861548046412
2.841386758349478 0.797607707013279 0.467426181540210
2.818772164990771 0.792321122293019 0.359514563045185
2.838305222213550 0.786598250798451 0.466487574749968
2.825346499704721 0.783537929841673 0.360002040418806
2.865535085137553 0.782309242049020 0.577388020009425
2.858182767187327 0.781374169448661 0.469303395120693
2.833808551033032 0.775242293584368 0.360733256479237
2.847127503709401 0.767680888714612 0.573190222111141
2.849644659874758 0.769960371704423 0.362439427286909
2.838405883598395 0.754710966448947 0.570900514166622
2.853757797612387 0.759859600999852 0.467739050470290
2.865742134105886 0.763586278162843 0.364145598094581
2.852417501330371 0.747785642667992 0.573190222111141
2.860214077827925 0.750896699984176 0.468364788330451
2.858811994133017 0.738806747495373 0.573953458092647
2.855297215219188 0.738430068418087 0.467113312610129
2.851786204389622 0.738584195866911 0.361708211226478
2.870886038951432 0.731246079535027 0.575861548046412
2.851987980497240 0.727492750996886 0.466174705819888
2.860117213502138 0.730098066410741 0.362439427286909
2.892123553194682 0.724841582016380 0.688350226292227
2.869612695862374 0.720264470320159 0.575098312064906
2.858466943596901 0.717997268897244 0.466800443680049
2.864573423085855 0.720594216511252 0.362683165973719
2.863258666472839 0.721326289221285 0.258329621504059
2.866391868420895 0.708829376221149 0.573953458092647
2.858914743671067 0.708039427591495 0.466487574749968
2.857437338155266 0.708202861903120 0.361464472539667
2.852223146897057 0.707967411396192 0.257109441105592
2.897113381942622 0.704633250799609 0.688350226292227
2.882201035882369 0.702071967253613 0.576624784027918
2.882601565363973 0.702702515533449 0.469929132980854
2.865677370344647 0.699636685897823 0.362195688600098
2.860483160412498 0.699426656668711 0.257632375562078
2.882499152785946 0.690430755917701 0.684301107314037
2.867629514185533 0.688986300701571 0.467113312610129
2.866172017278699 0.689165258354282 0.361951949913288
2.864844202354747 0.689903912402264 0.257806687047573
2.884891644709946 0.680364749830210 0.684301107314037
2.892764175236833 0.683287400638640 0.577769638000178
2.893204252125902 0.683924503964776 0.470867739771095
2.884013714178227 0.682815006536528 0.363901859407770
2.861419070392188 0.678520430236671 0.257283752591087
2.900536784545312 0.673375288148186 0.687450422074851
2.879833748023343 0.669628483039886 0.574716694074153
2.881989080995611 0.671190129998089 0.468677657260532
2.886379612948645 0.672743760040922 0.363901859407770
2.859889668636487 0.667622215323448 0.256935129620096
2.900969848094679 0.662812361088533 0.687000519966164
2.878326081424151 0.658695982177652 0.573953458092647
2.897792518446006 0.664215395546668 0.470867739771095
2.904189031134389 0.666215096368875 0.365851768902253
2.877737024553265 0.661204525218095 0.258329621504059
2.895660671800738 0.650972337832432 0.685200911531413
2.888269014759646 0.650369855145885 0.575479930055659
2.892499332899159 0.651852877355708 0.469616264050773
2.875514883942426 0.649080070699714 0.361951949913288
2.889744218967315 0.653352200413747 0.259201178931535
2.901720883542303 0.641702206528452 0.686100715748788
2.898188799026689 0.641982318468120 0.577006402018671
2.890899997239434 0.640897099622472 0.468990526190612
2.893266178343795 0.642481328889379 0.363901859407770
2.897841819283844 0.644558899817936 0.259724113388021
2.905204669466529 0.631843761782706 0.796645020825559
2.903832890097016 0.632076225023389 0.686100715748788
2.900301753886668 0.632368048237248 0.577006402018671
2.889149474322969 0.630464701685580 0.468364788330451
2.901198726933763 0.634155081279424 0.364633075468201
2.894124467980537 0.633667351752383 0.259201178931535
2.907392516286761 0.621698855583299 0.796645020825559
2.906021556722737 0.621936105811333 0.686100715748788
2.898652186259507 0.621417184094909 0.576243166037165
2.895195440950673 0.621204672424391 0.468990526190612
2.903394666170240 0.624024144347638 0.364633075468201
2.894370988072343 0.623141769861576 0.259026867446040
2.911435479966157 0.611943740244626 0.797162658915764
2.923430813419197 0.614997790319202 0.689699932618290
2.896961553375452 0.610485551317657 0.575479930055659
2.899172292640344 0.612008448401426 0.469303395120693
2.905555228458965 0.613885603878584 0.364633075468201
2.912122218546659 0.616335054861884 0.260421359330003
2.919334769068803 0.602439988094710 0.798715573186379
2.927468134399734 0.605183879247018 0.690149834726978
2.914454604020915 0.603554533429902 0.578532873981684
2.909132998405064 0.602982015584675 0.470554870841014
2.896018567738309 0.601318167965704 0.363170643347339
2.898650769190975 0.602920227069604 0.259026867446040
2.921316480568192 0.592755812717366 0.798715573186379
2.908555490156542 0.590695074904777 0.685200911531413
2.930010536841423 0.596117381056056 0.581204199916955
2.897670513478090 0.590064420526940 0.468364788330451
2.898099916316158 0.591205513217657 0.363170643347339
2.914402003422550 0.595590829794121 0.260247047844507
2.911533237835338 0.596063402648287 0.155751805779001
2.917683986850650 0.581422263166494 0.797162658915764
2.920155162392674 0.582444628046756 0.687450422074851
2.933998720205010 0.586270796001287 0.581585817907709
2.921019742268606 0.584207528727155 0.471806346561336
2.917663612576649 0.584595568168249 0.365364291528632
2.894975574903004 0.581100875381024 0.258329621504059
2.901847777768602 0.583534137223419 0.155123774304085
2.914107495322741 0.569612710470455 0.795609744645149
2.933644974398588 0.574494882320314 0.690149834726978
2.912908986971109 0.571490022355959 0.577006402018671
2.919686456518829 0.574407459993606 0.365364291528632
2.910669829642219 0.573688977707343 0.259549801902526
2.923561965487897 0.576760098251171 0.156170493428944
2.923667073517063 0.560893026343385 0.797680297005969
2.937546173865947 0.564618880208631 0.690599736835666
2.914886112988058 0.561318590765385 0.577006402018671
2.932785756381231 0.565296385929985 0.473057822281658
2.929470052487930 0.565717922832915 0.366339246275873
2.916566874295130 0.564282266700456 0.259898424873517
2.933301548429760 0.568582319764355 0.156589181078888
2.929404167769659 0.551398816650258 0.798715573186379
2.935669198683870 0.553639195546284 0.689699932618290
2.924544197492728 0.552598362858693 0.578532873981684
2.930762416773522 0.554832931644278 0.472432084421497
2.922433665773907 0.554841367635386 0.260247047844507
2.919571777969876 0.555353948647524 0.155751805779001
2.937010305698176 0.542222105973191 0.800268487456994
2.924170250023844 0.540907199060068 0.686550617857476
2.934176826390218 0.543817530663404 0.580059345944696
2.926854770804947 0.543517296107042 0.471493477631256
2.929444763308715 0.544527191161509 0.365851768902253
2.940022291553081 0.547555138647687 0.261641539728470
2.913639063421817 0.543693875737757 0.155333118129057
2.929195048353976 0.531268776107742 0.797680297005969
2.945121855266336 0.534688371060614 0.691049638944353
2.939827167810241 0.534787202286476 0.580822581926202
2.920867612834834 0.532391630222841 0.470242001910934
2.929281519118574 0.534453505922040 0.365608030215442
2.926142620710679 0.534936292794442 0.260247047844507
2.919355142657996 0.534748626520531 0.155542461954029
2.948888923766186 0.524746129106766 0.691499541053041
2.937810472985569 0.523832778659869 0.580059345944696
2.934375709357607 0.524277257465752 0.472119215491417
2.935037436171709 0.524924116033645 0.366095507589063
2.926030923044713 0.524367437193462 0.260072736359012
2.923169794940859 0.524907915414275 0.155647133866515
2.953767801484275 0.514452605503306 0.803374315998224
2.962221347082287 0.516457649342760 0.694198953705167
2.935753169978899 0.512898958802178 0.579296109963190
2.947862604672197 0.516075042219967 0.473996429071900
2.934896587832011 0.514333065166057 0.365851768902253
2.945504734839294 0.517251932551072 0.261641539728470
2.952613409841417 0.519031503473415 0.157112540641317
2.956322325107499 0.504802393754318 0.692399345270416
2.941395893597088 0.503310393606571 0.580059345944696
2.949734314035819 0.505267119281201 0.473996429071900
2.932761108097482 0.503413564881413 0.365364291528632
2.957110098618470 0.508655815331204 0.262513097155946
2.932755961057803 0.504993656092956 0.155961149603973
2.964909222404231 0.495091776276299 0.805444868359045
2.950378121620229 0.493194629884795 0.690599736835666
2.956688765259741 0.495310518197581 0.582730671879968
2.947497392339590 0.494828567135163 0.473370691211739
2.938415759480199 0.493831254204813 0.365851768902253
2.945114586272999 0.496014198762894 0.261292916757479
2.946317632473614 0.496745646124976 0.156589181078888
2.959077421554833 0.482976729914374 0.803374315998224
2.959774438527643 0.484151236399818 0.692399345270416
2.970024068808885 0.486892376081132 0.585020379824486
2.947341931712856 0.483702216601563 0.473057822281658
2.942080425662318 0.483893426549423 0.366095507589063
2.936998743228960 0.484110625659286 0.260421359330003
2.942121816208389 0.485482534483126 0.156275165341430
2.947309255378594 0.471027315658844 0.799750849366789
2.971067743132488 0.475356111598583 0.694648855813855
2.967828565477017 0.475900405344515 0.584257143842980
2.960631842724958 0.475806476998423 0.474935035862141
2.955510932091773 0.475512661495160 0.367557939709925
2.948505620141049 0.475441499712660 0.261292916757479
2.953657211020161 0.476801114068097 0.156798524903860
2.968937524498783 0.480331195701351 0.052496838563349
2.971920837842958 0.463796261081151 0.805962506449250
2.982335592992239 0.466488025291288 0.696898366357294
2.952015615559117 0.462801181739751 0.580822581926202
2.970161818984141 0.466177192959659 0.476186511582463
2.957152775052576 0.465193106091486 0.367557939709925
2.938338796042555 0.463284571035351 0.260247047844507
2.973059058183971 0.469290686524552 0.157740572116233
2.950844801590594 0.466839977806695 0.052147790434603
2.967713324736864 0.453063825735703 0.804409592178635
2.972387555934214 0.454308298407677 0.694198953705167
2.961375560791651 0.453683113395541 0.582349053889215
2.971691387306943 0.456325218230003 0.476186511582463
2.951752948004893 0.454845628314480 0.261292916757479
2.950992181723505 0.455255688374897 0.156484509166402
2.952456399663470 0.456536763075015 0.052147790434603
2.973175515472736 0.442752660327988 0.805444868359045
2.977810049327220 0.444505373263764 0.695098757922543
2.978474280966819 0.445667430460332 0.585401997815239
2.965529635225575 0.444259714929785 0.474935035862141
2.964254510402290 0.445126688172568 0.368045417083545
2.984845796374103 0.449284232622002 0.264081900525404
2.950588383424877 0.444654402990240 0.156379837253916
2.991600033988695 0.451902906421056 0.052810981879220
2.970803960155601 0.432334405680142 0.804409592178635
2.983200276166353 0.434670120643417 0.695998562139918
2.980011804729093 0.435267899837770 0.585401997815239
2.965032011448475 0.434137040279365 0.474622166932060
2.975610730714544 0.436216455375203 0.369264110517597
2.970626158954431 0.436545013803717 0.262687408641442
2.954098526588324 0.434642949557045 0.156484509166402
2.989202655099996 0.440873967809924 0.052741172253471
2.990487423535756 0.425076889682300 0.697348268465982
2.973738538149660 0.423755208858025 0.583875525852227
2.968484892177237 0.424063859136956 0.474935035862141
2.975150189267700 0.425545904074093 0.369020371830787
2.962270799472470 0.424758955933646 0.261815851213965
2.977344589064660 0.427450723399018 0.157635900203747
2.986764779763061 0.429867279431519 0.052671362627722
3.000540341544288 0.415291877447072 0.811656525441505
2.999674168741055 0.415705578039148 0.699147876900732
2.981033327547797 0.414182876564601 0.585020379824486
2.985671500411890 0.415358471574230 0.477437987302785
2.976617496046921 0.415158099284148 0.369020371830787
2.979520979368248 0.416623389634751 0.263210343097928
2.984752432992360 0.417886034464366 0.157949915941204
2.992207666267736 0.419994822203707 0.052741172253471
2.992469469323690 0.403002362873131 0.809068334990480
2.992188464886982 0.405091547629726 0.586928469778252
2.992975600105622 0.405730072087773 0.478376594093026
2.966246491936211 0.403161146481547 0.367557939709925
2.990827833052430 0.407565482902809 0.264081900525404
2.978277256276861 0.406384666119456 0.157531228291261
2.999599215912685 0.410360641577305 0.052845886692094
3.018689779562230 0.396346113121771 0.815797630163145
3.002503217645123 0.394753941406395 0.699147876900732
2.995530682533779 0.394900988607871 0.587310087769005
2.982623306496678 0.393729033618287 0.476499380512543
2.975507428347439 0.393846479674800 0.368532894457166
2.994207351747971 0.397385189900250 0.264256212010900
2.987597067862476 0.397038517216787 0.157949915941204
3.002995542557659 0.400151712814830 0.052880791504969
3.001929886080010 0.384023565788808 0.698697974792045
2.987898060977296 0.383818705414359 0.477125118372704
2.996552335815612 0.385993716388557 0.370970281325269
2.983720400536513 0.385399645444185 0.263210343097928
2.994907065384156 0.387376041646453 0.158263931678662
3.008340207770235 0.390181276015183 0.052950601130718
3.004063952320315 0.373643514323671 0.811138887351300
2.994253042506834 0.374015384839635 0.586546851787499
2.987129057908324 0.374184540275510 0.476812249442624
2.993876549794347 0.375560509861753 0.370482803951648
2.975097979864337 0.374259765056432 0.262338785670451
2.996109261847101 0.377965367465899 0.158263931678662
3.003665773048478 0.379451230169063 0.052845886692094
2.997741483310834 0.361704891524972 0.809068334990480
3.025755175268627 0.366156608963343 0.703646897987610
2.985795594136607 0.362378515086010 0.584638761833733
3.004168010250768 0.365140389971002 0.479315200883267
2.995169260899123 0.365107642403061 0.370482803951648
2.998140583143312 0.366531987857450 0.264256212010900
3.003421819824655 0.367709677319551 0.158577947416120
2.995048055841754 0.367745660419628 0.052671362627722
3.008517945702440 0.352887312175707 0.811656525441505
3.017337708916592 0.354455716890646 0.701397387444171
3.002640473052156 0.353791815295823 0.587691705759758
3.013271346448244 0.355577645546184 0.480566676603589
2.986568814059004 0.353483713307761 0.369264110517597
2.997423255648579 0.355829420245108 0.264081900525404
2.982808918506053 0.355150439993350 0.157426556378775
3.022126652034953 0.360366785557456 0.053125125195091
3.018840777671011 0.354098139730395 -0.053055315569342
3.017409309661357 0.343256902072284 0.813727077802325
3.014684180918968 0.343479875990350 0.700497583226796
3.019461596534889 0.345091909378649 0.590744649685783
3.010569063541424 0.344607906127225 0.479940938743428
3.005533722178628 0.345094448447783 0.371457758698890
3.014481510767482 0.347187998517098 0.265476392409367
2.997918892205869 0.346340821020785 0.158159259766176
3.012110896877146 0.342654160921991 -0.052915696317844
3.010966105761220 0.331349957998099 0.811656525441505
3.023612669350998 0.333809946413282 0.702297191661546
3.024550442235325 0.334982154103037 0.591507885667289
3.009731975925371 0.334404467283988 0.479628069813348
3.012638756052238 0.335259739007880 0.372188974759320
3.001153047913125 0.335572512180860 0.158263931678662
3.026556052399938 0.339482654771725 0.053160030007966
3.013288632298543 0.332137844190589 -0.052915696317844
3.036385700154292 0.324496021246363 0.704996604313673
3.025701321569296 0.324422461995516 0.591507885667289
3.018793741018538 0.324214761962858 0.480879545533670
3.023659015732609 0.325804956858078 0.373407668193372
3.010889315068647 0.325492238808034 0.264953457952881
3.030047950154057 0.328633470913132 0.159729338453465
3.023746630994212 0.328484002732131 0.053090220382216
2.996533961204209 0.319708141860030 -0.052601553001973
3.018971033392060 0.310915272546679 0.813209439712120
3.049130407729602 0.315096975912894 0.707696016965799
3.022909765515015 0.313453837784094 0.590744649685783
3.023781818585484 0.314611149922706 0.481505283393831
3.014905875676293 0.314219553624803 0.372188974759320
3.017951902601817 0.315601962375682 0.265476392409367
3.028852314143462 0.318345206210723 0.053160030007966
3.011555664357783 0.310682784740767 -0.052845886692094
3.033494503863740 0.301713602846841 0.816832906343556
3.035706381054851 0.304074034887690 0.593034357630301
3.036654427254804 0.305239661663869 0.483382496974313
3.015984338767520 0.303693653830058 0.372188974759320
3.030928942200026 0.306267255112031 0.266522261322339
3.022333037248548 0.306464464891631 0.159205978891035
3.041881843687388 0.308983089995751 0.053369458885213
3.028540543591554 0.301754696558619 -0.053125125195091
3.051785253745329 0.293315931020624 0.821491649155401
3.041557033997456 0.292868631842144 0.705446506422361
3.035735262392489 0.294447195822981 0.483069628044233
3.026904985762522 0.294123988311681 0.373407668193372
3.035945513064024 0.296072242574199 0.266870884293329
3.019408862906027 0.295523583901872 0.158996635066063
3.038961560474495 0.297972786252775 0.053299649259464
3.021613322702855 0.290416019228485 -0.052985505943593
3.052839812123467 0.282128608761846 0.821491649155401
3.050322440804796 0.282969857303206 0.707246114857112
3.043619615341548 0.283419656353478 0.594179211602560
3.030844169721512 0.283297188848924 0.482131021253991
3.033842563137182 0.284111593192773 0.374138884253803
3.032993212028385 0.285100087704940 0.266522261322339
3.032352605076873 0.286107749484665 0.159624666540979
3.043964806551513 0.287739391349377 0.053369458885213
3.044494983338778 0.273856460439350 0.594179211602560
3.031719216020608 0.273774128719234 0.482131021253991
3.038674185935156 0.274936867126102 0.374626361627423
3.035858132688633 0.275750496356476 0.266696572807834
3.041240856249849 0.276774599730546 0.160043354190922
3.036888135446577 0.277447358892421 0.053229839633715
3.067664546277629 0.264070342662239 0.710845331726613
3.045432372674685 0.263227521289844 0.594179211602560
3.038606312702151 0.263171827648490 0.483069628044233
3.037637753310837 0.264156263035335 0.374382622940613
3.038787024092450 0.265324995663521 0.266870884293329
3.044178110513819 0.266331074423726 0.160148026103408
3.041822155675462 0.267194911311401 0.053299649259464
3.058901010698469 0.252024937158255 0.708595821183175
3.043709997632592 0.254517553910971 0.267219507264320
3.037172681385706 0.254504699134574 0.159729338453465
3.046766348534878 0.256379637049720 0.053369458885213
3.057819399931224 0.241192609137185 0.708145919074487
3.062894972184715 0.242668790264155 0.597232155528585
3.046319253064161 0.241890547609924 0.484008234834474
3.043407844645693 0.242728447116221 0.374870100314234
3.056496050308281 0.244846038143018 0.268265376177292
3.044015125822526 0.244380929172048 0.160043354190922
3.059602075180208 0.246707203662772 0.053578887762460
3.066375224775030 0.231638357910591 0.709945527509238
3.071513349353610 0.233104806357464 0.598758627491598
3.058882100877906 0.233220119087880 0.485885448414957
3.042216706279174 0.232483550406667 0.374626361627423
3.053318095419895 0.234403970812828 0.267916753206301
3.074939928636978 0.221493333385210 0.711745135943989
3.064475798263440 0.221814864831765 0.597232155528585
3.063656743952206 0.222293096755943 0.486511186275118
3.058848388244124 0.223017599673761 0.376576271121906
3.052130651887146 0.223598901411277 0.267742441720806
3.063535101805979 0.224971955002503 0.160985401403295
3.071181835534062 0.226611349677386 0.053753411826833
3.079582713079767 0.211024886121686 0.712644940161364
3.061314178165138 0.210846699237730 0.596468919547079
3.072259691328480 0.212678100897477 0.487762661995440
3.063568887295023 0.212613739839258 0.377063748495526
3.058855243871673 0.213359520488823 0.268265376177292
3.070278917915276 0.214694816507187 0.161299417140753
3.061980268974154 0.215188603785401 0.053578887762460
3.073785959536461 0.200927800368430 0.598758627491598
3.086816590498251 0.202320648416783 0.489952744506003
3.056369196925050 0.201396502712155 0.376088793748285
3.073497596554865 0.203602698333104 0.269485556575759
3.061045297329932 0.203314404319712 0.160776057578323
3.062712762746859 0.204498987023507 0.053578887762460
3.080980885480734 0.189520375064954 0.712644940161364
3.077612713386625 0.191469990566414 0.488388399855601
3.068941022481911 0.191468201987654 0.377551225869147
3.074189577802806 0.192872949180689 0.269485556575759
3.057749712237703 0.192377305690379 0.160566713753352
3.087460073112060 0.179103159453326 0.713994646487427
3.102552656595442 0.181065339934486 0.604101279362141
3.068402413582366 0.180147072125745 0.486824055205199
3.081480631614239 0.181454578457920 0.379013657990009
3.070866294939369 0.181905221407117 0.269136933604768
3.074352553893358 0.182650196841611 0.161404089053239
3.099771001479685 0.168420200628365 0.716694059139554
3.093393826900152 0.169156715285562 0.602193189408375
3.095999515858248 0.170925158375711 0.380719828797681
3.071512384490100 0.170648711960465 0.269136933604768
3.086966336298633 0.172047756382196 0.162032120528154
3.104232467330138 0.157796818871366 0.717593863356929
3.088083384424595 0.158056664871214 0.601048335436116
3.105150489768040 0.159473582210368 0.492455695946647
3.080717743313568 0.159297000172640 0.378769919303198
3.080048127645052 0.160340409562094 0.269834179546750
3.089542628296272 0.161375365149775 0.162136792440640
3.099742944620545 0.148891330648782 0.491517089156405
3.084542955881013 0.150319681174756 0.270182802517740
3.086071031704737 0.150934054002667 0.161927448615668
3.108700950172115 0.137903301182695 0.604864515343647
3.091646145454198 0.138768748240436 0.379988612737250
3.102962064427645 0.140362001341730 0.271751605887198
3.086579088473138 0.140160736246457 0.161927448615668
3.115070404205711 0.126747864451467 0.606009369315906
3.096759424455519 0.127085594260203 0.490891351296244
3.099474333415342 0.128822658580331 0.271402982916208
3.109000114723067 0.130305712497135 0.163078839653013
3.103722471367622 0.115435658274566 0.603719661371388
3.105100412071431 0.116029602989799 0.492142827016566
3.098511035470502 0.116866483765805 0.380719828797681
3.095923230522266 0.117851112286930 0.271054359945217
3.127419028945561 0.119596680811368 0.164020886865386
3.107994041243757 0.105818081636137 0.604482897352894
3.113346490108222 0.106544331419346 0.493394302736888
3.102830705428234 0.107268835983936 0.381207306171301
3.102251719404806 0.108333017198714 0.271577294401703
3.120118512439304 0.095328242374104 0.606772605297413
3.123571655600351 0.095979423350140 0.494958647387291
3.101202105611319 0.096375621406090 0.380963567484491
3.114559409859242 0.097878972622060 0.272623163314675
3.114014433761307 0.084806652763956 0.493394302736888
3.113440592318284 0.085334828356397 0.382425999605353
3.124855345697388 0.086739300162199 0.273494720742151
3.136422516625109 0.073366182409517 0.609825549223437
3.106405035944298 0.073206492034825 0.492142827016566
3.123642122589721 0.074703677860490 0.383644693039404
3.121155478443657 0.075734329425489 0.273146097771161
3.134696638461920 0.062378517930377 0.609443931232684
3.132305351378668 0.063424754237538 0.496210123107612
3.139761284272334 0.064123944679672 0.385594602533887
3.121400825440584 0.064839002238073 0.273146097771161
3.136858272637264 0.051468212534456 0.609825549223437
3.138432960236447 0.052589870340651 0.497148729897854
3.127584415105938 0.054046157921104 0.273669032227647
3.137018819412127 0.040518220203754 0.609825549223437
3.150448630151680 0.041791584212105 0.499025943478336
3.122268219052936 0.041962798923870 0.383400954352594
3.125761817078141 0.043101051292614 0.273494720742151
3.156501163383167 0.030852131781318 0.499964550268578
3.144230609417548 0.031281022618332 0.386082079907507
3.136832762298031 0.020257063709332 0.496835860967773
3.144317052979659 0.020854206184937 0.386082079907507
3.154664259460109 0.008809507399073 0.499651681338497
3.150725374603815 -0.001649716099149 0.499025943478336
3.144386016832747 -0.001097597823527 0.386082079907507
3.154648883981639 -0.013214239630374 0.499651681338497
3.136422718146845 -0.012043057882121 0.385107125160266
3.152612397602565 -0.023660534760700 0.499338812408417
3.152241883625593 -0.023107553761715 0.387057034654748
3.160081923003223 -0.034196711961634 0.388031989401990
3.156320729145293 -0.045726395467650 0.499964550268578
3.177857497127186 -0.057688975358944 0.503406108499463
3.169749034584454 -0.068057200422634 0.502154632779141
3.177391205305835 -0.079318461725922 0.503406108499463