# This PCD file was generated using the MATLAB® pcwrite function
# from Computer Vision Toolbox®.
# .PCD v.7 - Point Cloud Data file format
VERSION .7
FIELDS x y z
SIZE 8 8 8
TYPE F F F
COUNT 1 1 1
WIDTH 469
HEIGHT 1
VIEWPOINT 0 0 0 1 0 0 0
POINTS 469
DATA ascii
2.739710778614112 1.166325691129041 0.365608030215442
2.774859689862784 1.159611020238364 0.369264110517597
2.773788261935587 1.146672657584272 0.368532894457166
2.768588237029188 1.133223478185289 0.367314201023115
2.811553778790118 1.151955906347566 0.265825015380357
2.770295189864715 1.123773925971159 0.367070462336304
2.813312868780012 1.142367894277908 0.265650703894862
2.794464103748818 1.122234439014969 0.369751587891217
2.784008337176209 1.119164175782514 0.262513097155946
2.796519738138000 1.111739764324772 0.369507849204407
2.786046794175594 1.108702675290742 0.262338785670451
2.794841740966115 1.099790633621005 0.368776633143976
2.797314931573559 1.101891655140921 0.263036031612432
2.807435980398813 1.092316271681418 0.477125118372704
2.791264720848875 1.087146348709775 0.367801678396735
2.821563417985114 1.100081607612351 0.264953457952881
2.802014618527286 1.078960623959945 0.475560773722302
2.802451557330922 1.080252314813758 0.368776633143976
2.810515775636333 1.084487780615339 0.263558966068918
2.796348302181503 1.066144248267426 0.473996429071900
2.815478914070536 1.074000904438451 0.369995326578028
2.812422922730136 1.073959881667863 0.263384654583423
2.803933816347620 1.057281869795842 0.474622166932060
2.821067911551746 1.064867537755231 0.370239065264838
2.821745914371335 1.066248929273000 0.263907589039909
2.816861150834331 1.050940370861837 0.476186511582463
2.813793430610007 1.050355332591292 0.368776633143976
2.825634958936965 1.055899551700084 0.263907589039909
2.820512456045107 1.041101287810809 0.476186511582463
2.813718399441097 1.039151512720157 0.368289155770356
2.838647324377364 1.049484335948490 0.264779146467386
2.829108597786025 1.032508132116701 0.585401997815239
2.820238524030264 1.030386635235651 0.475560773722302
2.824606586417136 1.032541354451521 0.369264110517597
2.838369849143684 1.038695863915655 0.264430523496395
2.838235309545115 1.024626331063924 0.586546851787499
2.808955862408372 1.015164646655788 0.473057822281658
2.828193619887398 1.022675346877916 0.369264110517597
2.838231441823384 1.027425438881114 0.264081900525404
2.821280602246686 1.007943124794705 0.582349053889215
2.825326764102355 1.010500917880594 0.475247904792221
2.839045473960726 1.015966451874732 0.370239065264838
2.830368949711085 1.013976160757715 0.263036031612432
2.835888404685806 1.002013210656483 0.584638761833733
2.829011457940035 1.000138790285930 0.475247904792221
2.829475140311321 1.001413968378339 0.368532894457166
2.833891143455415 1.004090151888038 0.263036031612432
2.843075554103951 0.993403188343204 0.585401997815239
2.849093794437590 0.996622107511441 0.478063725162946
2.827332549803607 0.989563832296623 0.367801678396735
2.846780327366173 0.997486116278363 0.263907589039909
2.839103364902763 0.980908483860036 0.583875525852227
2.837791714388600 0.981009753388854 0.475560773722302
2.843901016189951 0.984233183493677 0.369507849204407
2.857775229641247 0.990152017698862 0.264604834981890
2.849490108321945 0.987838483677259 0.158054587853690
2.851969306815309 0.973667617021675 0.585783615805993
2.837460369215589 0.969820274505314 0.474935035862141
2.856880764713895 0.977014906125329 0.370726542638459
2.859500152644494 0.979025727583061 0.264430523496395
2.868207294854410 0.982566159497236 0.158891963153577
2.851630339287130 0.962450810819539 0.585020379824486
2.840995879542588 0.959413948268767 0.474935035862141
2.848990646808895 0.963221838975365 0.369264110517597
2.855351322279195 0.966483101077749 0.263733277554414
2.865944479126813 0.970626229377629 0.158577947416120
2.856381219630523 0.951852953389641 0.695098757922543
2.847523172565972 0.950005600608948 0.583493907861474
2.855403536292358 0.953742482911693 0.476812249442624
2.852335561458316 0.953271137465056 0.369264110517597
2.870044162075075 0.960303343394569 0.264779146467386
2.874996948785271 0.962518513339136 0.158891963153577
2.855984545014266 0.940657265593746 0.694198953705167
2.848957461917839 0.939445281846895 0.583112289870721
2.866383620088679 0.945746275261314 0.478063725162946
2.849990977296491 0.941440882388064 0.368532894457166
2.869595510500307 0.949027978702372 0.264430523496395
2.884027667420756 0.954359402865053 0.159205978891035
2.855544559120843 0.929475959987592 0.693299149487792
2.863419195420322 0.933144689880601 0.585401997815239
2.858236381276612 0.932559486002746 0.476186511582463
2.858921085997884 0.933335009908195 0.369264110517597
2.872890753799398 0.939005439269312 0.264430523496395
2.879748161581984 0.941803122741424 0.158787291241092
2.862481919907780 0.920695970924018 0.694198953705167
2.868527781063141 0.923745595238339 0.585783615805993
2.855833982897710 0.920758215340601 0.475247904792221
2.869718477997030 0.925787714108491 0.370239065264838
2.876150991831283 0.928971458351307 0.264430523496395
2.888719543726057 0.933587795449812 0.159101306978549
2.878519082472682 0.915332335443321 0.697348268465982
2.871575259706242 0.914228135257435 0.585783615805993
2.860912809627267 0.911383479226643 0.475560773722302
2.872772722003485 0.916266294406002 0.370239065264838
2.871623890622836 0.917004356104471 0.263733277554414
2.897507048370431 0.925827013824410 0.159415322716007
2.879837492531386 0.904694801344119 0.696898366357294
2.871003415496405 0.903020787910220 0.585020379824486
2.862700343992961 0.902056675716999 0.368532894457166
2.882407622036770 0.909372750123820 0.264430523496395
2.900721135141996 0.915707186290400 0.159415322716007
2.866227243071257 0.889438762075472 0.692849247379104
2.883512282338162 0.895906183128973 0.586928469778252
2.882296252797281 0.896080010821624 0.478063725162946
2.869622451485286 0.893238462620955 0.369020371830787
2.893172972122088 0.901677003840551 0.265127769438376
2.894366391404246 0.902603199836321 0.158891963153577
2.872307258536062 0.879797230350716 0.804927230268839
2.867451310472760 0.878857285762113 0.692399345270416
2.875360806975753 0.882379593978274 0.584638761833733
2.877853175412182 0.883694053138013 0.476812249442624
2.892494366852273 0.890400101821577 0.264779146467386
2.889864386456451 0.890142712626366 0.158473275503634
2.860416906454033 0.865790218472721 0.800786125547199
2.877810238775774 0.871603144941533 0.694198953705167
2.893301209598861 0.877397611983847 0.587691705759758
2.873054506213171 0.872352998977386 0.475560773722302
2.892730277555505 0.878878656391272 0.371214020012079
2.885900421344326 0.877904062259531 0.263907589039909
2.902199580777457 0.883969266079326 0.158996635066063
2.858017829918434 0.853641820590372 0.799233211276584
2.893904414666042 0.865460935712231 0.697348268465982
2.894465527501402 0.866729583498104 0.587310087769005
2.881909316792197 0.863517822721394 0.476499380512543
2.888175048828762 0.866494040299643 0.370239065264838
2.887039141094923 0.867251841218166 0.263733277554414
2.913070872154980 0.875625975337403 0.159415322716007
2.872097982567106 0.846938748504394 0.802339039817814
2.886326033582133 0.852777334980270 0.585020379824486
2.894526528823956 0.855749524462428 0.478063725162946
2.893234952982970 0.856465993962257 0.370482803951648
2.903570090674951 0.860627906622059 0.264953457952881
2.923768486326078 0.867725145133444 0.159834010365950
2.969356226773410 0.881818744415690 0.054067555142704
2.880601440161259 0.838527917897055 0.803891954088429
2.890668463678005 0.842005670902507 0.695098757922543
2.891169923663661 0.843246686003917 0.585401997815239
2.903184818748255 0.847300816813647 0.479002331953187
2.890490752710565 0.844691051063426 0.369751587891217
2.910380969669866 0.851606374589194 0.265302080923871
2.926779599733802 0.857514002050336 0.159834010365950
2.928280962005436 0.858508866905612 0.053264744446589
2.889081107004682 0.830068022021498 0.805444868359045
2.891571981446285 0.831876459115961 0.694648855813855
2.898240376490952 0.835986147879469 0.477750856232865
2.897090426886354 0.836202184280370 0.370239065264838
2.913188995913547 0.841950521079288 0.265302080923871
2.920161878199892 0.844518041043906 0.159310650803521
2.929190998335744 0.848237395686735 0.053229839633715
2.877092289845339 0.815762363738995 0.801303763637404
2.896332804804152 0.822310160796916 0.695098757922543
2.911950093912897 0.827842637281358 0.588454941741264
2.893684991393350 0.823195912864024 0.476499380512543
2.915264829328714 0.830435031743383 0.372188974759320
2.908446313393347 0.829590455232494 0.264604834981890
2.926787273083618 0.835926808655808 0.159519994628493
2.949438451461850 0.842953060928197 0.053543982949586
2.883643133513708 0.806755442326527 0.802339039817814
2.906691539505930 0.814297833187087 0.696898366357294
2.912931776708001 0.817142723236151 0.588073323750511
2.890693580673379 0.811992963732054 0.475560773722302
2.914323763804018 0.819179465421596 0.371701497385700
2.913242273754372 0.819972839798040 0.264779146467386
2.933532105274562 0.826788924551250 0.159729338453465
2.938890616670543 0.828852876350595 0.053299649259464
2.893890549121746 0.798740694915968 0.804409592178635
2.917029537165463 0.806223182081574 0.698697974792045
2.904413633659849 0.803827717899835 0.585783615805993
2.918257481994214 0.808755948004041 0.479628069813348
2.907601001727269 0.806349122111945 0.370482803951648
2.919926246883610 0.810864957087696 0.265127769438376
2.947945744539928 0.819754476144279 0.160357369928380
2.941765948409035 0.818589184004962 0.053299649259464
2.915162503566294 0.794217936080581 0.809585973080685
2.910425410842576 0.793473039597176 0.696448464248606
2.922353361776103 0.797820991726132 0.588836559732017
2.926779153599823 0.800127149515429 0.480566676603589
2.902739029301403 0.794099538563447 0.369507849204407
2.928503675618698 0.802246798315794 0.265650703894862
2.935380440557650 0.805232289780597 0.159519994628493
2.948462155285391 0.809374214877227 0.053369458885213
2.922586905105662 0.785838992495538 0.698697974792045
2.936494888091856 0.790677878704854 0.591126267676536
2.918110716190421 0.786820339115148 0.478689463023106
2.909326374077184 0.784996501526808 0.369995326578028
2.942826694936933 0.795137712361276 0.266696572807834
2.934317471919251 0.793937711996334 0.159310650803521
2.955129827168498 0.800122458852453 0.053439268510962
2.903829375751553 0.769393989120061 0.804927230268839
2.923428537289345 0.775133031392846 0.698248072683357
2.935441966577761 0.779415134355204 0.590363031695030
2.920839453591591 0.776629438235135 0.478689463023106
2.931232255785686 0.779940598120596 0.372432713446131
2.937883440784947 0.782808563103722 0.265999326865853
2.944927026756933 0.785235853431175 0.159729338453465
2.961768788784313 0.790834003024695 0.053509078136711
2.902891410568154 0.757769875754849 0.803891954088429
2.916689524435419 0.762459323208692 0.695998562139918
2.928648483244169 0.766677796164670 0.588454941741264
2.937042575221317 0.769423013708757 0.480879545533670
2.945457593095801 0.772726334089714 0.373895145566992
2.953444925866421 0.776474851268995 0.160043354190922
2.960643675894637 0.779472429894800 0.053439268510962
2.916613243666686 0.751029803469148 0.806997782629660
2.931306845849600 0.756450234328442 0.588454941741264
2.948136966631850 0.762440060660631 0.373895145566992
2.945205589822421 0.762778885343303 0.266173638351348
2.958070715060030 0.766661760125952 0.160148026103408
2.963346505180743 0.769133106044779 0.053439268510962
2.921218891387758 0.740809715040845 0.807515420719865
2.946495502962407 0.748314528236368 0.701847289552859
2.939637525436151 0.747665232535384 0.589599795713523
2.942342543903476 0.748900004688845 0.480879545533670
2.935391732687933 0.748221970427425 0.371945236072510
2.965224604736092 0.756928681164261 0.267742441720806
2.977637054171919 0.761758092107281 0.053648697388210
2.930899964288481 0.734016315571245 0.809585973080685
2.945051304494977 0.738106656719948 0.700947485335483
2.955301197065961 0.741772035790901 0.592271121648795
2.946467398866984 0.740648180769100 0.481192414463750
2.937727851901220 0.738996488169470 0.371945236072510
2.969519953015353 0.748096158254463 0.267916753206301
2.966963634072713 0.748002879673395 0.160357369928380
2.968382377956964 0.749462676065711 0.053439268510962
2.922316475192409 0.720494410306307 0.806480144539455
2.953285592344553 0.729223466870332 0.702297191661546
2.954060768651853 0.730508998100253 0.591507885667289
2.941492096494667 0.727945699607799 0.479940938743428
2.957630690538323 0.733035329077066 0.374138884253803
2.956643519732610 0.733886218321883 0.266522261322339
2.963741517056997 0.736197218720641 0.160043354190922
2.996207542551372 0.745372325190210 0.053893031078331
3.038403947582692 0.749678229592942 -0.054626032148697
2.924689652869048 0.710799698131860 0.806480144539455
2.961493679319125 0.720291767484045 0.703646897987610
2.952777765417542 0.719263669959360 0.590744649685783
2.962099892899985 0.723177624185099 0.374382622940613
2.961122622077890 0.724034360421602 0.266696572807834
2.975993377585517 0.728220946555092 0.160566713753352
2.991022234670264 0.733005158525556 0.053753411826833
2.994367122887585 0.727733708414689 -0.053788316639708
2.934790688535637 0.701872769828407 0.808550696900275
2.975360729700154 0.712673429842729 0.706346310639736
2.941906848654207 0.705746314007025 0.588073323750511
2.969551955213865 0.712926348431677 0.483695365904394
2.966536289937615 0.713297644505408 0.374626361627423
2.969442976477233 0.715093101901738 0.267219507264320
2.982400546337846 0.718764245433291 0.160776057578323
2.989674934095782 0.721621687100727 0.053683602201084
3.014392066554322 0.721466141216011 -0.054102459955579
2.970948292408903 0.700112762237318 0.817868182523966
2.968346761322199 0.700046570338119 0.704096800096297
2.957727175209127 0.698632031828676 0.590744649685783
2.964210514541111 0.701255957770046 0.482443890184072
2.975798287975616 0.705642859358597 0.267568130235311
2.977118177453324 0.706504686033046 0.160357369928380
3.001903138844697 0.713493410782138 0.053858126265457
3.014945706660490 0.710480883184318 -0.054067555142704
2.968874038631458 0.689240150957960 0.703646897987610
2.960147836613636 0.688303380973269 0.590744649685783
2.966640295657699 0.690904659851170 0.482443890184072
2.954044238838265 0.688514712218706 0.372432713446131
2.982123758951344 0.696156950442429 0.267916753206301
2.975676428303858 0.695199542413528 0.160148026103408
3.008269607146295 0.703921691987388 0.053927935891206
3.013511437291654 0.699048682704914 -0.053997745516955
2.960696404650239 0.675914966798664 0.813727077802325
2.975061415924209 0.679740771096689 0.704546702204985
2.981670235943370 0.682345970899456 0.594560829593314
2.967227140943903 0.679585735864469 0.482131021253991
2.969973459554489 0.681305911343253 0.374138884253803
2.989763763432247 0.687493780464243 0.160776057578323
3.022400496542086 0.696109462827561 0.054137364768453
3.008135066581797 0.686745020685338 -0.053858126265457
2.944304291093268 0.660828277233846 0.808550696900275
2.974457413741200 0.669777443661511 0.592652739639548
2.977289453250633 0.670961156238886 0.483382496974313
2.985888182517994 0.673994255231622 0.375845055061475
2.977194447517099 0.673124123089348 0.267045195778825
2.994093361201521 0.677494158858570 0.160880729490809
3.017011025041267 0.683787041598864 0.053997745516955
3.018318240958553 0.677993539627005 -0.053997745516955
2.985442666411719 0.660216893143043 0.705896408531048
2.974860460376602 0.658965977686853 0.592271121648795
2.991184720292436 0.663129687467948 0.485259710554796
2.982409007683255 0.662276466952950 0.375113839001044
2.989250252509576 0.664890623503468 0.267916753206301
3.010086782606035 0.670076607182916 0.161613432878211
3.007668920260536 0.670640353014855 0.053788316639708
3.032382069299037 0.670042213623804 -0.054207174394203
2.976303714952385 0.647306867990364 0.703196995878922
3.001201383730343 0.654367725307608 0.486511186275118
2.984702614113609 0.651861881914630 0.375113839001044
3.007123809994556 0.657858529344840 0.269311245090264
3.002652242518175 0.657429462968986 0.161090073315781
3.019757926315384 0.662279456331356 0.053962840704081
3.034702478791006 0.659453142735647 -0.054207174394203
2.982356423038978 0.637728674321853 0.704096800096297
2.985147505162973 0.639415242465324 0.593415975621054
2.995629172057700 0.642754134042849 0.485259710554796
2.996664075928336 0.643523302663985 0.376332532435095
3.009401844373713 0.647357700462443 0.269311245090264
3.002863400635306 0.647047987138500 0.160985401403295
3.020096560582830 0.651312937447332 0.053927935891206
3.033074789805142 0.648020420345238 -0.054137364768453
2.996006761205174 0.629719461710824 0.706796212748424
3.008493753660755 0.633440693265123 0.597613773519338
2.990233167338569 0.630140963246136 0.484008234834474
3.012488148316764 0.635929158870360 0.378038703242767
3.011643210141107 0.636848983730760 0.269311245090264
3.020846586809660 0.639345984503306 0.161822776703182
3.034088955577243 0.643255280102790 0.054137364768453
3.029447302768358 0.636196127344278 -0.054032650329830
3.009528844816414 0.622147964519261 0.709495625400550
3.006732850058516 0.622664439501562 0.596850537537832
3.003911932528633 0.622627041358377 0.485885448414957
3.004862218606327 0.623918045419449 0.376820009808716
3.032616567667247 0.631889615003879 0.162346136265612
3.034247805275729 0.632782095200377 0.054102459955579
3.031540348223312 0.626146620043912 -0.054032650329830
3.009772457312351 0.611251108371588 0.709045723291863
3.005040353608865 0.611382369802731 0.596087301556326
3.021552218797127 0.615290955539448 0.488388399855601
3.016746959870042 0.615409228859454 0.378038703242767
3.015908302269148 0.616334783678444 0.269311245090264
3.026643179569709 0.620179684683943 0.053927935891206
3.055264891938143 0.619934894467643 -0.054416603271450
3.008065592674129 0.599978955854446 0.708145919074487
3.007156168609073 0.600889096688983 0.596087301556326
3.013891243115594 0.603329026273978 0.486824055205199
3.001359099795325 0.601365154179747 0.375845055061475
3.023901612651721 0.606979861734025 0.269834179546750
3.029228069818863 0.608599048969274 0.161927448615668
3.048393387313332 0.613556651980929 0.054276984019952
3.067215932368748 0.611220281927486 -0.054591127335823
3.012053999138055 0.589849699905146 0.708595821183175
3.032353667653787 0.594924137029285 0.600666717445363
3.016082310816122 0.592278510209214 0.486824055205199
3.013178751323968 0.592800760914015 0.377063748495526
3.033821071594845 0.597961916320884 0.270531425488731
3.027310752399043 0.597776599568804 0.161718104790696
3.056401768742933 0.604075209636872 0.054381698458575
3.059518364153962 0.598590187601720 -0.054416603271450
3.038267535760039 0.585078107834820 0.601429953426869
3.012210970180032 0.581150928886521 0.485885448414957
3.026924146050403 0.584537547677656 0.378526180616388
3.039182754054898 0.589106013124833 0.162241464353126
3.076159559895907 0.596830568045575 0.054695841774447
3.061589194206582 0.587906828677717 -0.054416603271450
3.029503373984267 0.571335425540914 0.711745135943989
3.032574853864491 0.573010967291468 0.599903481463857
3.029748432174482 0.573572322050807 0.488388399855601
3.028946121810715 0.573968049420696 0.378526180616388
3.022262277263839 0.573794421720720 0.269136933604768
3.054955146706382 0.581106248685615 0.162974167740527
3.060544492665819 0.582722952427380 0.054381698458575
3.071483201402514 0.578697297458860 -0.054556222522948
3.029563017881846 0.560402543718196 0.711295233835301
3.035616461027293 0.563714355550966 0.489014137715762
3.023124542548433 0.561940452437826 0.377551225869147
3.034040326193019 0.565065229690384 0.270008491032245
3.062855080146923 0.571538036489826 0.163288183477985
3.058628530340741 0.571301787251756 0.054311888832826
3.077417321104434 0.568699066623202 -0.054626032148697
3.027665815144189 0.549128441610189 0.710395429617926
3.021048358092746 0.549017535153411 0.596850537537832
3.045339377933342 0.554530162832202 0.490265613436084
3.021161829869103 0.550672431952494 0.377063748495526
3.041874198991910 0.555544872472385 0.270531425488731
3.043220469175758 0.556888531509441 0.162136792440640
3.046835326957833 0.558099623618081 0.054067555142704
3.091189646534571 0.560092529294535 -0.054835461025945
3.027645525510952 0.538215495710723 0.709945527509238
3.038409023006840 0.541223079550538 0.599903481463857
3.040652953703632 0.543265535626271 0.379257396676819
3.047717296431571 0.545625586257000 0.270880048459722
3.049173007041715 0.546435453798351 0.162346136265612
3.051883854206539 0.532638998819659 0.602193189408375
3.029770482058797 0.529324515953329 0.487136924135279
3.079682505074110 0.539152427359128 0.383888431726215
3.061377847602781 0.537049317724159 0.271925917372694
3.058930477580012 0.537170313241395 0.162764823915555
3.076259992468465 0.541320500861622 0.054521317710074
3.043191242797350 0.521275582466348 0.489014137715762
3.051452179953789 0.524335381985356 0.270880048459722
3.060786915842879 0.526489380615386 0.162764823915555
3.072218909044274 0.529560013784282 0.054416603271450
3.061336961988073 0.512292114496471 0.603338043380635
3.054005976735530 0.512709326026151 0.380232351424060
3.086665074920210 0.519300046574059 0.273843343713142
3.068514624127893 0.516797149344577 0.163078839653013
3.077992317484676 0.519498339087731 0.054486412897199
3.057294198085962 0.500651125016293 0.602193189408375
3.072097145753612 0.504176384500042 0.493081433806808
3.098288561031338 0.510140878261742 0.274714901140619
3.082123893092430 0.508031857243492 0.163706871127928
3.083732868293196 0.509402802890054 0.054556222522948
3.066777348433690 0.491218144623796 0.603719661371388
3.066122571293398 0.491662150397816 0.491829958086486
3.069270567372593 0.493265928759442 0.381694783544922
3.086281149744209 0.497104920977186 0.273494720742151
3.103258978629758 0.501506684408599 0.054870365838819
3.076231801971474 0.481725044629300 0.605246133334400
3.065784637072329 0.481185525715916 0.491517089156405
3.078817809546029 0.483781734894568 0.382669738292163
3.082093174005563 0.485398877872958 0.272971786285665
3.083622599402609 0.486191304802301 0.163602199215442
3.114866582015014 0.492231892853005 0.055044889903192
3.064309940143918 0.468905312641135 0.602574807399128
3.071432869093575 0.470543907056241 0.492142827016566
3.078525671613601 0.472730413705184 0.382425999605353
3.075891951147013 0.473425051670966 0.272274540343684
3.110637027915603 0.480440274831645 0.054940175464568
3.092512129487540 0.463282693500560 0.495271516317371
3.091935856532308 0.463748133232481 0.383888431726215
3.087377008457902 0.464166367715199 0.273146097771161
3.102741767131693 0.467030141243276 0.164439574515330
3.077222269247596 0.448918180133671 0.604482897352894
3.099974206768687 0.453342509692596 0.496210123107612
3.087643353330977 0.452089671098870 0.383157215665784
3.083064635243904 0.452518580538604 0.272623163314675
3.104353103590543 0.456196705995322 0.164439574515330
3.086545211714647 0.439280434736997 0.606009369315906
3.104923762777365 0.443554877654669 0.385107125160266
3.106320372719115 0.444860884616750 0.274540589655123
3.094064386805456 0.443656791527974 0.163811543040414
3.093893648383627 0.429313220894479 0.607154223288166
3.085529624539049 0.428701525678057 0.493394302736888
3.105881061402045 0.433739527628571 0.274366278169628
3.091638157002542 0.432300620607692 0.163602199215442
3.087518266434096 0.417997585233014 0.605627751325153
3.086934284739415 0.418467183572543 0.493394302736888
3.109837999834980 0.422677568028730 0.385350863847076
3.113224747672397 0.424244730387940 0.274889212626114
3.110865014529718 0.424476209395206 0.164544246427815
3.104043296649530 0.409757398742603 0.495897254177532
3.103422760915285 0.410777710613200 0.384375909099835
3.108368056026565 0.413088450649672 0.164334902602844
3.099576873748250 0.398164716042962 0.494958647387291
3.104907491398188 0.399400338461407 0.384375909099835
3.133965010165653 0.404250269572196 0.276458015995572
3.106895961306269 0.387535029278615 0.495897254177532
3.124010418362154 0.390777281003120 0.386569557281128
3.127449429860472 0.392316277211206 0.275760770053590
3.110124977750878 0.377468060232427 0.496210123107612
3.119270861516975 0.367534012280094 0.497461598827934
3.132512083097780 0.370202863597028 0.387300773341559
3.118176141766670 0.369612326645665 0.274714901140619
3.145985794561214 0.360108522504525 0.501528894918980
3.129840898952945 0.358813909016692 0.386813295967938
3.133302745840779 0.360318933283630 0.275935081539086
3.125687440710447 0.346183517828243 0.498087336688095
3.131074325170438 0.347886539436213 0.386813295967938
3.142461913401069 0.350262299164643 0.276632327481067
3.138602731390777 0.337082101247005 0.499964550268578
3.133760984148772 0.338221956600062 0.275760770053590
3.127971409093695 0.324899782892146 0.498087336688095
3.153171049278658 0.328073528195433 0.389250682836041
3.133017477454524 0.314373591828449 0.498713074548256
3.150346751348955 0.316667832821182 0.388763205462420
3.140010491833549 0.316736032460525 0.276109393024581
3.145892856876414 0.304577570554929 0.500590288128739
3.149457115355081 0.305477499131523 0.388519466775610
3.148903700688995 0.293777996173399 0.500903157058819
3.150504243249221 0.294481981121161 0.388519466775610
3.151512983243397 0.283482874940791 0.388519466775610
3.174286063404686 0.273806654840646 0.391200592330523
3.176076256074409 0.252193798814735 0.391200592330523
3.161102025840394 0.239903914389557 0.389250682836041