# This PCD file was generated using the MATLAB® pcwrite function
# from Computer Vision Toolbox®.
# .PCD v.7 - Point Cloud Data file format
VERSION .7
FIELDS x y z
SIZE 8 8 8
TYPE F F F
COUNT 1 1 1
WIDTH 351
HEIGHT 1
VIEWPOINT 0 0 0 1 0 0 0
POINTS 351
DATA ascii
3.394551125285482 0.747582765945637 0.426786440604827
3.391319652704940 0.734468487285647 0.426055224544396
3.402242582764115 0.725031087448017 0.550962185871693
3.409141711554605 0.727123370395219 0.428005134038878
3.420345027844126 0.715793428498619 0.553465137312337
3.414960590715598 0.702854348930499 0.552213661592015
3.386915116598979 0.697698325621691 0.424592792423534
3.405776004437495 0.688580860602313 0.550336448011532
3.401003830191372 0.688233893863153 0.426055224544396
3.400644096396127 0.673962478814754 0.549084972291210
3.405450574003987 0.676150561608813 0.426298963231206
3.410732017122578 0.663596941949708 0.550336448011532
3.405841610774369 0.663879407691092 0.426055224544396
3.418848591470403 0.652798684553012 0.551275054801774
3.408138232815759 0.651986757271877 0.426055224544396
3.404540249974673 0.638987616554126 0.425324008483965
3.417384416918865 0.628440562814146 0.550336448011532
3.412606868154447 0.628177768679789 0.426055224544396
3.441295085225398 0.619186716132189 0.679661641531253
3.406964687810607 0.614851510724944 0.425080269797154
3.437529355187589 0.606747806938125 0.678516787558993
3.439195662561316 0.607660894416448 0.553152268382256
3.430486501040285 0.607357024184979 0.427761395352068
3.426084521619542 0.592403378384708 0.675845461623722
3.421831499166811 0.592283085833326 0.550023579081452
3.411070891002590 0.591646973104717 0.425080269797154
3.419476393173711 0.594334505940199 0.303650607732841
3.435874337840557 0.581751491753725 0.677371933586734
3.421829225444300 0.580602176227526 0.549710710151371
3.409201219835705 0.579071673709503 0.424592792423534
3.425458453180261 0.583063335554013 0.303999230703832
3.449505113652170 0.571680438635587 0.679661641531253
3.423934255034799 0.568056645365739 0.549710710151371
3.417076417116029 0.568144565578707 0.425324008483965
3.423542266836120 0.570447767644049 0.303650607732841
3.449541690448827 0.559321710176054 0.679280023540500
3.419949771823590 0.555748807264916 0.548772103361130
3.424916797405903 0.557169522215022 0.426055224544396
3.427479068921129 0.558814504616270 0.303824919218336
3.425770650575701 0.544427645987533 0.549397841221291
3.432722121970638 0.546146653792975 0.426786440604827
3.429408814187111 0.546846965464497 0.303824919218336
3.435901576886676 0.532519732921020 0.675845461623722
3.437410010735658 0.533982291685569 0.550962185871693
3.428723080064143 0.533245708725239 0.426055224544396
3.425390926763493 0.533952155989524 0.303301984761850
3.454895963046860 0.521887120385408 0.806674480877100
3.445504001016455 0.521698612772328 0.677371933586734
3.450971083093601 0.523758705956417 0.552839399452176
3.428601001028515 0.520975771277343 0.425811485857585
3.437082272231602 0.523492034460168 0.304173542189327
3.447057218900637 0.508402396462386 0.804424970333661
3.460899079825058 0.511678340800892 0.680043259522006
3.435192010444285 0.509103048345013 0.550023579081452
3.426471469700334 0.508421827950733 0.425324008483965
3.450739738935100 0.496644434021998 0.804874872442349
3.458777818356330 0.499033719166393 0.679280023540500
3.454630634647963 0.499050875728286 0.552839399452176
3.436083713980875 0.497596125852481 0.426298963231206
3.440653147117604 0.499484111320599 0.304173542189327
3.460086798387982 0.486283486788173 0.806674480877100
3.452637445806302 0.486465611467286 0.677753551577487
3.446401598506355 0.486813964226727 0.551275054801774
3.461301289610744 0.489534767374587 0.429223827472929
3.434399940812269 0.486952958882758 0.303476296247346
3.469486004796536 0.475260464832011 0.808474089311851
3.442644511637202 0.472807955134883 0.675463843632969
3.455990550233706 0.475255457374817 0.552526530522095
3.429558666370466 0.472840478546843 0.425080269797154
3.445946918631303 0.476325747717837 0.304347853674822
3.451887953073627 0.459967008705864 0.803975068224974
3.456030093186604 0.461746811913949 0.677753551577487
3.465459994301199 0.464238029140343 0.553778006242417
3.433236148249440 0.460531256442471 0.425324008483965
3.447669594011587 0.463692521496203 0.304347853674822
3.470865485974031 0.450170735575875 0.808024187203163
3.471248845079055 0.451452590643884 0.680424877512759
3.459302894268722 0.450512950727569 0.552526530522095
3.440727925341963 0.449315356303803 0.426055224544396
3.455193754493206 0.452431123437966 0.304870788131308
3.466883767185476 0.439198809703146 0.679280023540500
3.450903014531577 0.438398282428618 0.550962185871693
3.440229769076823 0.437652504242103 0.425811485857585
3.446793211066350 0.439710163492269 0.303999230703832
3.451178345694897 0.440881739244542 0.182338471550416
3.438138440988003 0.420932140923665 0.928125095737639
3.469980841980602 0.426060074024079 0.807124382985788
3.466210328942322 0.427439496908187 0.553152268382256
3.459467257087603 0.427833965896983 0.428005134038878
3.446329846624928 0.427430704002617 0.303824919218336
3.446750194360404 0.428093675686190 0.182024455812959
3.460616719678584 0.412040993647611 0.933819114729895
3.475316992336067 0.414406461912526 0.808024187203163
3.452321179411415 0.412886650534986 0.675845461623722
3.447143143803242 0.414098225157151 0.426298963231206
3.449778946254145 0.415636487466054 0.303999230703832
3.458137907576505 0.417255925403177 0.182547815375388
3.479305715783489 0.401954035954624 0.938477857541740
3.468999066530625 0.401376886478721 0.806224578768412
3.469039496384133 0.403836031713968 0.553152268382256
3.440680668093066 0.401143400815453 0.425324008483965
3.465061099896588 0.405211901441474 0.305219411102299
3.459573334403483 0.405182229356171 0.182547815375388
3.482539325193895 0.390629373781553 0.938995495631945
3.468374449035630 0.389653502140955 0.805774676659724
3.482364272250879 0.392456149632965 0.681188113494265
3.462576365536619 0.390838109562451 0.551900792661934
3.459744383732465 0.391741563369412 0.427517656665257
3.472324760820114 0.394393678356728 0.305742345558785
3.474344719039340 0.376821087636107 0.936407305180920
3.475525378408780 0.378176644474934 0.807124382985788
3.487616303980315 0.380724143125787 0.681951349475771
3.468983762378421 0.380528235903401 0.428492611412499
3.455856395898635 0.380309120530261 0.304173542189327
3.456295449089366 0.380967991928013 0.182233799637930
3.479481511168943 0.365094261916146 0.937442581361330
3.480764250124187 0.365843064649408 0.808024187203163
3.475321308169617 0.366497550607156 0.679280023540500
3.471177809170189 0.366673172645357 0.552839399452176
3.466407095728551 0.367392776084549 0.428005134038878
3.449302210345509 0.366797490887788 0.303476296247346
3.469584697958253 0.369566738784750 0.182861831112846
3.494188701677561 0.354310612858491 0.941066047992765
3.483958838690023 0.353887633614174 0.808474089311851
3.470720046948335 0.353766939531666 0.678135169568240
3.486192705318802 0.355958839662886 0.555029481962739
3.475567434199978 0.356099836778446 0.428980088786119
3.456507385120673 0.355366239727022 0.303999230703832
3.466880087188113 0.357044156857521 0.182652487287874
3.485053415017589 0.342940725761189 0.808474089311851
3.479629310694928 0.343633399400847 0.679661641531253
3.491165001787554 0.346003189258820 0.555655219822900
3.454939820506163 0.343021909837895 0.426298963231206
3.471484750798585 0.345888328885578 0.305219411102299
3.463949498522897 0.346358731788806 0.182443143462902
3.494596174263874 0.330336597200580 0.940548409902560
3.495929406497233 0.331693879089722 0.810723599855290
3.486670851751592 0.332043502008480 0.680806495503512
3.480611035914194 0.332079412903746 0.553778006242417
3.467972457840674 0.332095197654180 0.427761395352068
3.464737976391886 0.333006014771414 0.304522165160318
3.461219571887111 0.333277538179702 0.182233799637930
3.481749004313284 0.319927789923965 0.553778006242417
3.475040661855893 0.320534678955421 0.428492611412499
3.459927565677146 0.320358717688303 0.303999230703832
3.470260480889488 0.322537228338397 0.182652487287874
3.475594550210778 0.304686380300898 0.934854390910305
3.492815293476506 0.308039002043695 0.681569731485018
3.476901007534049 0.309693490426724 0.305393722587794
3.477333167008918 0.310955470108527 0.182966503025332
3.494064778950246 0.292790696681008 0.939513133722150
3.501204471921153 0.294619747319861 0.811173501963977
3.484139438933787 0.294408598884612 0.679661641531253
3.487834263244659 0.295947023403903 0.554403744102578
3.469333547838436 0.294987096467312 0.427517656665257
3.506361365334747 0.299984743504274 0.184431909800134
3.484632837276377 0.299351077933040 0.061048517717618
3.495065522171644 0.280592350734361 0.939513133722150
3.492499377753462 0.281613338632861 0.808923991420539
3.496771146892799 0.283800674667249 0.555655219822900
3.472320638875542 0.283036339513856 0.427761395352068
3.479028089719769 0.284805591842549 0.305393722587794
3.485656537964493 0.287185615638857 0.061048517717618
3.494097495277384 0.268242712257448 0.938995495631945
3.497347055423823 0.269720214179275 0.809823795637914
3.505683766352185 0.271594178759518 0.683477821438784
3.487845928633455 0.271437064833836 0.554090875172498
3.481203790216745 0.271531421909314 0.428736350099309
3.485959957242135 0.273126665573452 0.305916657044280
3.476464417365996 0.273603683361757 0.182757159200360
3.496605284943731 0.275802865210881 0.061223041781991
3.496939238128363 0.256185550727991 0.939513133722150
3.504097693048803 0.257939735755390 0.811173501963977
3.508568355579881 0.259500214502052 0.683859439429537
3.490048834917380 0.259967929519998 0.429711304846550
3.476957944008555 0.260213264065419 0.305045099616804
3.483373203795361 0.261916146862556 0.183071174937818
3.503528835037236 0.264046602666223 0.061327756220614
3.497726810759339 0.245198345954626 0.939513133722150
3.510765621899500 0.246728158260617 0.812523208290040
3.501576094435165 0.247310687978722 0.682332967466524
3.493553566958881 0.247969663496284 0.554716613032659
3.492871816228756 0.248533973402143 0.429955043533360
3.477801724793141 0.248681825282091 0.305045099616804
3.484222596269523 0.250363424948118 0.183071174937818
3.494412542998977 0.251708683855498 0.061153232156241
3.502457222899701 0.232632952067149 0.940548409902560
3.517438706794949 0.234861284155067 0.813872914616104
3.500459190261450 0.234954919638493 0.681951349475771
3.500310545423974 0.236172314798514 0.555655219822900
3.487776384506106 0.235938122419852 0.429223827472929
3.486599795196601 0.237081180752998 0.305742345558785
3.493045741575882 0.238744460849082 0.183489862587761
3.489284829949175 0.239099255479902 0.061048517717618
3.507104004444348 0.220648281463559 0.941583686082970
3.495418884628868 0.221750618173006 0.680806495503512
3.501152649320995 0.223341448988177 0.555655219822900
3.496541888486212 0.223660076539279 0.430198782220171
3.491421884857555 0.224556320156477 0.306090968529775
3.485964228509283 0.224816241540875 0.183071174937818
3.498119754512844 0.226826354247582 0.061188136969116
3.515138688004880 0.209453397823824 0.812973110398728
3.505227201029590 0.211932719776409 0.431173736967412
3.510082901481656 0.213456059836760 0.307659771899233
3.486727745953973 0.212646585915731 0.183071174937818
3.506873991377474 0.215103963043853 0.061327756220614
3.506085615608072 0.197248322334685 0.810723599855290
3.520368700887052 0.199284626299717 0.685385911392549
3.498647406573065 0.199280201303935 0.555029481962739
3.500825919476893 0.201243317851791 0.306788214471757
3.495389525222669 0.201542891939081 0.183489862587761
3.515553376744132 0.203936796619695 0.061467375472113
3.513200920418826 0.186578562196812 0.683859439429537
3.505272040863900 0.186770992999964 0.555968088752981
3.502624081038848 0.187856042553533 0.430686259593791
3.497528076222458 0.188807131211928 0.306439591500766
3.504049091778687 0.189772515276645 0.183908550237705
3.500269980604228 0.190793277594176 0.061188136969116
3.530733779697345 0.173917118351827 0.816122425159542
3.507948268281834 0.174022245308995 0.682714585457277
3.511790871280150 0.175441753446938 0.556906695543222
3.499293276968689 0.175429671201926 0.430198782220171
3.492196261704974 0.176295968974496 0.305916657044280
3.508679576199583 0.177742039613153 0.184117894062676
3.510900143875879 0.179083230826409 0.061362661033489
3.525479244110156 0.161324257299336 0.814772718833479
3.518330102087796 0.162843211118447 0.557845302333463
3.497901384613742 0.163121316992878 0.429955043533360
3.514682507221071 0.165133432535311 0.307834083384729
3.501298468176187 0.165117044275945 0.183699206412733
3.519493641304670 0.167206394422400 0.061502280284987
3.518258781185232 0.148073867990343 0.812973110398728
3.524795632332044 0.149581569507967 0.685767529383302
3.507035670091719 0.150054300147276 0.555968088752981
3.506408811009666 0.150640587676970 0.430929998280601
3.507302050873409 0.151905520060491 0.307136837442747
3.501880134852093 0.152283034812220 0.183699206412733
3.522080620487473 0.154393256448639 0.061537185097862
3.518754221005613 0.135791950880000 0.812973110398728
3.535105132959937 0.137658786460187 0.687675619337067
3.497692754300709 0.136813321856320 0.554403744102578
3.514847475494768 0.138713141259490 0.431904953027843
3.497856871873021 0.139265509541513 0.306265280015271
3.504386031217805 0.140138069481942 0.183803878325219
3.530590377362164 0.142420360492961 0.061676804349360
3.554218767347668 0.125979342528640 0.821071348355107
3.521786169986545 0.126060663621155 0.685004293401796
3.515850079868609 0.127077035124689 0.557219564473302
3.515265909900685 0.127670255894348 0.431904953027843
3.500268176732488 0.128349007454923 0.306439591500766
3.506804898679466 0.129201577959284 0.183908550237705
3.519030498186617 0.130882063649025 0.061467375472113
3.543912787154397 0.115706096967018 0.561599729494429
3.519658193626137 0.115529157237107 0.432392430401463
3.504677461569957 0.116262125495775 0.306788214471757
3.519211428217491 0.117359164589852 0.184536581712620
3.519465922709279 0.118597557481994 0.061467375472113
3.549167793361752 0.100997050218727 0.819721642029044
3.536317491222243 0.101866794614359 0.687675619337067
3.502181871494081 0.102718775082749 0.430198782220171
3.513027990293035 0.104264236686548 0.307485460413738
3.515606908662221 0.104954910028894 0.184327237887648
3.523856031468238 0.106432346282312 0.061537185097862
3.530017383972148 0.088121207201328 0.815222620942167
3.546464656783426 0.089770518917475 0.689583709290833
3.526877402320178 0.089890666410395 0.558783909123705
3.506487950600392 0.090595795108665 0.430686259593791
3.517353951137871 0.092105154695566 0.307834083384729
3.517948416890429 0.092735142991211 0.184431909800134
3.534200993463403 0.094398107791269 0.061711709162235
3.530303478314867 0.075798610159652 0.815222620942167
3.540868046599445 0.077262015626589 0.688438855318574
3.519270096182539 0.077405269966897 0.557532433403383
3.524644198845538 0.078754409331381 0.432879907775084
3.525621535497425 0.080007545023414 0.308531329326710
3.542505599425341 0.082246527060804 0.061851328413733
3.535227395066508 0.064793679357208 0.687294001346314
3.535319159492645 0.065412600061628 0.560035384844026
3.524897629697298 0.066450625271708 0.432879907775084
3.503967090202137 0.067279605200263 0.306613902986261
3.533468991071601 0.052423913705710 0.686912383355561
3.545392381903126 0.053838668028310 0.561599729494429
3.525108110783832 0.054146031532136 0.432879907775084
3.528086315685218 0.055423608737027 0.308705640812205
3.536689833957000 0.056793612728325 0.185373957012507
3.539640159896205 0.040775531119184 0.560661122704187
3.521305734541009 0.041793660046972 0.432392430401463
3.528258285874312 0.043107951586559 0.308705640812205
3.522894497622047 0.043657371474440 0.184641253625106
3.545528030805237 0.027847084621768 0.689202091300080
3.533834989308282 0.028372055256956 0.559722515913946
3.525400213925992 0.029535014731706 0.432879907775084
3.532371892413845 0.030826542492888 0.309054263783196
3.527014254242193 0.032011044886622 0.184850597450078
3.567199227159921 0.015564941675435 0.693399889198364
3.537863209616271 0.016054424186629 0.560348253774107
3.537392244018457 0.017287097263008 0.434342339895946
3.524488528369633 0.018454347426426 0.308357017841215
3.531098961702545 0.019721582048252 0.185059941275049
3.551723810643086 0.004959145192080 0.562538336284670
3.543385389878521 0.005565941332644 0.435073555956377
3.524530346356913 0.006766620817975 0.308357017841215
3.543129818341770 0.007420724588996 0.185687972749965
3.555443044532148 -0.008687603538980 0.691110181253845
3.557644245366574 -0.008072052592255 0.563476943074912
3.543383231123135 -0.006802815802837 0.435073555956377
3.528517267502794 -0.005542586521421 0.308705640812205
3.547129460178911 -0.004333638321389 0.185897316574936
3.547538178960028 -0.021051762436019 0.689583709290833
3.555622570467593 -0.019858549141960 0.563164074144831
3.535397644370016 -0.019128528725920 0.434098601209135
3.571001087856216 -0.033656888897148 0.694163125179870
3.551580998470875 -0.032234011706582 0.562538336284670
3.541264375482011 -0.031522261265957 0.434829817269566
3.563001398787538 -0.046642243284399 0.692636653216858
3.551438999629311 -0.045250990287883 0.562538336284670
3.553034668043418 -0.044651100808783 0.436292249390428
3.560134137130094 -0.043497407953236 0.311494624580130
3.554964941923752 -0.058948953004526 0.691110181253845
3.551259407614300 -0.057647550173503 0.562538336284670
3.562781342324153 -0.057212600847518 0.437510942824479
3.534062746485362 -0.055517494014391 0.309228575268691
3.552762153179914 -0.071938409941636 0.690728563263092
3.562874179781415 -0.070898985305392 0.564415549865153
3.552624185900659 -0.070074723513696 0.436292249390428
3.541803589149607 -0.068624494415979 0.309925821210672
3.566540047625813 -0.084050174580352 0.565041287725314
3.544419705641737 -0.082290966959148 0.435317294643187
3.555485547660612 -0.081306125594335 0.311146001609140
3.552452196007601 -0.094265136021079 0.562851205214751
3.554065705184638 -0.093687215477077 0.436535988077238
3.559196003203388 -0.092579207377878 0.311494624580130
3.552082835878227 -0.107284891049911 0.562851205214751
3.551732814912346 -0.106033412642723 0.436292249390428
3.544910498358882 -0.104591242046091 0.310274444181663
3.565506493829000 -0.120149014265434 0.565041287725314
3.571160105086470 -0.119715538286613 0.438729636258531
3.580834168784219 -0.133806547885247 0.567544239165958
3.576423274581816 -0.145519668452999 0.566918501305797
3.566270382751409 -0.144483103808070 0.438242158884910
3.571919024340868 -0.158451852689982 0.566292763445636
3.557811625303619 -0.156581707233130 0.437267204137669
3.575379501328091 -0.169236031506535 0.566918501305797
3.573165261910372 -0.168506196235093 0.439217113632151
3.578712633812447 -0.181915972857554 0.567544239165958
3.576520396790634 -0.181178707327890 0.439704591005772
3.583939186853296 -0.195353932110089 0.568482845956199
3.565955238399265 -0.193125232332702 0.438485897571721
3.591123685116722 -0.208320620432758 0.569734321676521
3.567241181170297 -0.205685832354105 0.438729636258531
3.601368196610789 -0.234783656163465 0.571611535257004