# This PCD file was generated using the MATLAB® pcwrite function
# from Computer Vision Toolbox®.
# .PCD v.7 - Point Cloud Data file format
VERSION .7
FIELDS x y z
SIZE 8 8 8
TYPE F F F
COUNT 1 1 1
WIDTH 343
HEIGHT 1
VIEWPOINT 0 0 0 1 0 0 0
POINTS 343
DATA ascii
3.292097691150536 1.283535254750349 0.433854862522325
3.321377461995390 1.268310721417466 0.436535988077238
3.359196825254629 1.284096276847814 0.314632231319046
3.325784457641943 1.256709223496317 0.436535988077238
3.339432895687776 1.263198837688012 0.312366182007607
3.328291548900858 1.244397218992781 0.436292249390428
3.321430272770027 1.243153535334466 0.310274444181663
3.336338620934210 1.234149130676975 0.436779726764049
3.340696641681018 1.237087071532512 0.311668936065626
3.331305335367748 1.219084635615952 0.435561033329997
3.358090144914872 1.230215826358909 0.312889116464093
3.337406998148027 1.208124467677049 0.435804772016807
3.347378474864001 1.213055829248942 0.311494624580130
3.338475897251453 1.194690096762709 0.561599729494429
3.343472712837638 1.197136548111066 0.436048510703618
3.366596767533304 1.206742145461338 0.312889116464093
3.355116051118471 1.188108906696906 0.437023465450859
3.367032819966619 1.193651720224425 0.312540493493102
3.344461651436308 1.171869157470125 0.561286860564348
3.347592225163000 1.173622119880475 0.435561033329997
3.374526083287616 1.184387653604113 0.312889116464093
3.359934082785788 1.163481493160515 0.563164074144831
3.346041784319823 1.159979054810530 0.434829817269566
3.363581804239554 1.167375066140387 0.311494624580130
3.358167562642474 1.150412597755177 0.562225467354590
3.366971061401474 1.154085075863279 0.437023465450859
3.371405250423865 1.156920233365796 0.311843247551121
3.358420819840613 1.137416080725471 0.561599729494429
3.365338824697818 1.140413814412712 0.436292249390428
3.371649585325714 1.143864577924602 0.311494624580130
3.370060286053100 1.127606398153185 0.562851205214751
3.373063689007320 1.129920714115930 0.436779726764049
3.366176935693378 1.128920788965557 0.310623067152654
3.379602254209285 1.117696582808992 0.563789812004992
3.375102818969605 1.117515678859520 0.436535988077238
3.383335413058392 1.121552170744534 0.311843247551121
3.402647384126871 1.110842109469998 0.566918501305797
3.377482018776059 1.103931286795623 0.436292249390428
3.395191237743511 1.111031457284976 0.312540493493102
3.407091316105062 1.115583965270832 0.187886082912168
3.377536875854380 1.090914686367000 0.435804772016807
3.406631707506871 1.101625402758315 0.313237739435083
3.395762602716925 1.098765273827741 0.187048707612281
3.394695807641696 1.084038495926373 0.564415549865153
3.405529244734721 1.088152994456965 0.438973374945341
3.410075749046483 1.090917734918020 0.313237739435083
3.404713977480740 1.090512696600204 0.187362723349739
3.391082971111547 1.068553695611296 0.691110181253845
3.385458554260203 1.067430981958237 0.562225467354590
3.397948813701306 1.072673312045527 0.437510942824479
3.404364203184280 1.076005455569557 0.312366182007607
3.416305217487681 1.080435468988972 0.187781410999682
3.385419559060121 1.053792620244030 0.689202091300080
3.394092112290092 1.058441809644542 0.436535988077238
3.406197581403174 1.063521637026287 0.312191870522112
3.431306976532265 1.072676239499795 0.188409442474598
3.396583618767774 1.044276674359300 0.690728563263092
3.415484681360207 1.050740286844437 0.565979894515555
3.393971818734491 1.045419049926510 0.436048510703618
3.417504822621865 1.053973997855077 0.312889116464093
3.427397009756826 1.058335114040174 0.187990754824654
3.403784826337032 1.034148900098651 0.691491799244598
3.407429619105229 1.036555621376035 0.564102680935073
3.405016135493944 1.036470746172415 0.437023465450859
3.420981135748385 1.042635348361071 0.312889116464093
3.419608034544809 1.042869167237941 0.187362723349739
3.414895739419606 1.024517820570358 0.693018271207611
3.397962170496740 1.020083976741572 0.561912598424509
3.402910147682552 1.022864409352948 0.436292249390428
3.405521220261367 1.024945551740275 0.311146001609140
3.430696779343157 1.033828684979991 0.187781410999682
3.416568762254902 1.012033773845793 0.692636653216858
3.412689212863758 1.012180509732687 0.563789812004992
3.423587330993540 1.016062943272340 0.438485897571721
3.389979722988788 1.007376459618269 0.309402886754187
3.434284613926684 1.021847019973838 0.187781410999682
3.425072070528715 1.000263487783945 0.823770761007234
3.429472074349533 1.004147424565174 0.565979894515555
3.429018204992710 1.004664349968203 0.438729636258531
3.422152727630774 1.003950074267683 0.312017559036616
3.453160951120649 1.014356150033316 0.188618786299570
3.438640805049917 0.992512669074221 0.695689597142882
3.429463845065616 0.993106793716442 0.312366182007607
3.433661715789912 0.995621630649739 0.187362723349739
3.416976742692012 0.972062023786863 0.820171544137732
3.421314800342570 0.974587157997860 0.691491799244598
3.430699878075860 0.978555409640151 0.565041287725314
3.428313024542460 0.978521662799284 0.437754681511290
3.444403658000753 0.984414712958308 0.313412050920579
3.446717047943666 0.986377418264640 0.187886082912168
3.425977714971129 0.961708652117474 0.821521250463795
3.437925961990345 0.966357405680361 0.694163125179870
3.426488804414453 0.964433264203279 0.563789812004992
3.437440067476608 0.968163157808191 0.438485897571721
3.449736507733327 0.972926318137605 0.313586362406074
3.452231328776909 0.974280415851451 0.187990754824654
3.483042417644494 0.984288623160767 0.063177711302966
3.434947973427136 0.951304266951723 0.822870956789858
3.437494530423973 0.953301603358017 0.693399889198364
3.431904054933845 0.952396305689231 0.564102680935073
3.440798645512363 0.956158354390635 0.438485897571721
3.430078096726578 0.954469145239522 0.311494624580130
3.461383348929018 0.963831222331217 0.188304770562112
3.467194812828975 0.966753685783299 0.062828663174221
3.442007420395845 0.940335392958014 0.823770761007234
3.440801231621847 0.941296700370972 0.693399889198364
3.433138262956732 0.940488551393267 0.563789812004992
3.436457454592517 0.942042641117882 0.437510942824479
3.444916805277670 0.945654611706928 0.312540493493102
3.466652577916247 0.952271907604677 0.188409442474598
3.464764042463764 0.953053952462906 0.062723948735597
3.443387201228568 0.927807817232562 0.823320858898546
3.440275071025181 0.928257454752311 0.692636653216858
3.446097677484227 0.930473790490783 0.565354156655394
3.435892298476918 0.929005168937354 0.437023465450859
3.455889343328987 0.935706666246821 0.313237739435083
3.466100001045307 0.939120602277468 0.188200098649626
3.479649244659696 0.944095611747795 0.062933377612844
3.454138439177472 0.917784210685878 0.825120467333297
3.451083303121439 0.918262266760937 0.694163125179870
3.449164291951501 0.919041002719231 0.565354156655394
3.442950355437830 0.918028880209850 0.437510942824479
3.462984413960134 0.924665637937364 0.313586362406074
3.465497897975041 0.925984770517869 0.187990754824654
3.482923554128983 0.931943617433895 0.062933377612844
3.429540850030988 0.897164610584281 0.949865895526251
3.465661567259543 0.909199291933917 0.696452833124389
3.467794623418626 0.910405818618089 0.567857108096038
3.451893453878286 0.907519362464586 0.438242158884910
3.460410805468749 0.911050134446824 0.313063427949588
3.472571780008928 0.914899970244780 0.188200098649626
3.493889547126981 0.921820822906149 0.063072996864343
3.466278243086672 0.894504440210019 0.826470173659360
3.468970671072312 0.896490900385010 0.696452833124389
3.455652446421908 0.894335981100366 0.565354156655394
3.456012414800901 0.896360171515913 0.312366182007607
3.477834935960129 0.902667974173647 0.188304770562112
3.493373947104811 0.908002788589953 0.063003187238593
3.465602305302526 0.881438725369630 0.825570369441985
3.464468838257494 0.882438111884217 0.694926361161376
3.474220509342720 0.885567703367290 0.567857108096038
3.465992749650876 0.884759055596608 0.439217113632151
3.480353679468074 0.889719101366695 0.314283608348055
3.479029702823711 0.890027555606359 0.188200098649626
3.488773659875454 0.893817946776167 0.062863567987095
3.461511932437356 0.870113993610149 0.693781507189117
3.476832745216281 0.875255600711373 0.567857108096038
3.462980351488581 0.872411143231643 0.438485897571721
3.479267928270122 0.877806076686208 0.313934985377065
3.499237042012758 0.883493844044497 0.189142145861999
3.463804942073104 0.856563515788235 0.823770761007234
3.477867875559227 0.861329490605168 0.696452833124389
3.476032211422903 0.862162767562327 0.567231370235877
3.473711050719981 0.862230650919450 0.439460852318962
3.482310846403141 0.865655817273436 0.313934985377065
3.490670584500833 0.868380849154025 0.188514114387084
3.508207573960362 0.874044055384536 0.063107901677217
3.483814199578080 0.848618211635282 0.827819879985423
3.484667921943822 0.850114831511752 0.697216069105895
3.469573787844070 0.847074109432368 0.565667025585475
3.484412778272881 0.851985851092964 0.440435807066203
3.477570497844737 0.851599407652157 0.313237739435083
3.499500100776227 0.857617036876513 0.188828130124541
3.522889519665382 0.864652732536753 0.063317330554465
3.477280327075800 0.834179292497150 0.825570369441985
3.476160569857640 0.835194016459661 0.694926361161376
3.476350762012356 0.835881502083408 0.566292763445636
3.491225375760576 0.840747306200992 0.440923284439824
3.482458799362810 0.839922375626634 0.313412050920579
3.502472422747543 0.845396277000689 0.188828130124541
3.516167718449379 0.850000918660116 0.063142806490092
3.493446827988726 0.825172069952882 0.828719684202799
3.482875800704466 0.823958822572097 0.695689597142882
3.490780770484651 0.826472316306317 0.568169977026118
3.490275800588021 0.827639496208095 0.440435807066203
3.495061810371526 0.830063103147128 0.314283608348055
3.517060833391263 0.835936275715532 0.189456161599457
3.517168017369242 0.837258938644918 0.063107901677217
3.546016060988826 0.836935822876171 -0.063596569057461
3.494407829656690 0.812531284384664 0.828269782094111
3.504851583655760 0.816249376366565 0.699505777050413
3.495568243226408 0.814730575589613 0.568482845956199
3.481544831897909 0.812743477103357 0.438973374945341
3.501818109073438 0.818765222747357 0.314632231319046
3.504399545774208 0.820013888316777 0.188618786299570
3.523963050500919 0.825889215027522 0.063177711302966
3.546968095318330 0.824100264307878 -0.063561664244587
3.485825011054446 0.797720225020460 0.825570369441985
3.499838073944935 0.804141849056625 0.440923284439824
3.504654798782680 0.806536608211137 0.314632231319046
3.507099541442339 0.808388371928871 0.188618786299570
3.538515603517963 0.816280217890696 0.063387140180214
3.542025608000106 0.809931007234799 -0.063422044993088
3.498094027740791 0.787688021608260 0.827819879985423
3.518125210633159 0.793488996867988 0.701032249013426
3.501170904914976 0.790307249384940 0.568482845956199
3.512304835455792 0.794109069483302 0.442141977873875
3.505505600456554 0.793858111895123 0.314457919833551
3.517830305680007 0.797294659383904 0.189037473949513
3.545243553292206 0.804808898659417 0.063456949805963
3.550683991394616 0.798878929556983 -0.063526759431712
3.508432743637192 0.777158405865791 0.829619488420174
3.511290354467386 0.779077311210780 0.699124159059660
3.509693470719886 0.779365736184453 0.569421452746440
3.516993132503111 0.782275005167008 0.442385716560685
3.512144743979721 0.782483314801709 0.314806542804541
3.511124158153587 0.764906955429037 0.829619488420174
3.498643522075495 0.763467333224912 0.696071215133635
3.516252354644966 0.767952849421926 0.570047190606601
3.510006205392626 0.767872447617990 0.441167023126634
3.518747142687881 0.771071830188907 0.315155165775532
3.529028233547784 0.774615866204620 0.189351489686971
3.546869494682390 0.779180889236422 0.063387140180214
3.562036471822883 0.775347153819935 -0.063631473870336
3.520482859007844 0.755368832885266 0.699887395041166
3.526504737039642 0.757948661513461 0.571298666326923
3.512665196279654 0.755615561347968 0.441167023126634
3.542841800093665 0.763400910949114 0.317072592115980
3.541605506262153 0.763781369003014 0.189874849249400
3.549567734813384 0.766795257178574 0.063387140180214
3.570587481811171 0.764164074681091 -0.063736188308959
3.526940123011857 0.743885785545497 0.700650631022673
3.521527944793805 0.743386261991599 0.570047190606601
3.524992108511810 0.745402919710238 0.442385716560685
3.539637563476816 0.749790793128035 0.316549657659494
3.536303787610676 0.750374496209986 0.189456161599457
3.562003073492998 0.756477375249845 0.063561664244587
3.559535112915096 0.748814105316915 -0.063491854618837
3.521911925966165 0.731917473791336 0.569734321676521
3.531331563331039 0.734518021505520 0.442873193934306
3.532352006863207 0.736016736659827 0.315678100232018
3.550503413462456 0.741092106647151 0.190084193074372
3.568406930977441 0.745479047650065 0.063631473870336
3.569831570784304 0.738626828489705 -0.063631473870336
3.526150734379169 0.718685373658280 0.699505777050413
3.524445338039197 0.719619247850950 0.569734321676521
3.533873995621975 0.722186899051208 0.442873193934306
3.534899664429426 0.723682043062169 0.315678100232018
3.556981748021470 0.729496548351302 0.190293536899344
3.563151990069620 0.731410062864849 0.063491854618837
3.570428490466158 0.725762957770425 -0.063596569057461
3.548240744828069 0.711584870155571 0.573175879907406
3.540265909630706 0.710628316522819 0.443360671307927
3.545217401657199 0.712909682442499 0.316375346173999
3.567338193290904 0.718653645433911 0.190712224549287
3.563723135950253 0.718572630855239 0.063456949805963
3.592550113391535 0.717210318395616 -0.063945617186207
3.544566899617929 0.696701378049145 0.702177102985685
3.546826709121967 0.698431550189936 0.572550142047245
3.553548263199908 0.701688122204134 0.316898280630485
3.558069293658607 0.703871366846957 0.190084193074372
3.576017768611480 0.708070585540774 0.063631473870336
3.604843525457030 0.706588822765075 -0.064120141250580
3.556615771681174 0.686183862905669 0.704085192939450
3.549243081719005 0.686046559434171 0.572550142047245
3.558783369667703 0.688534990995982 0.445066842115599
3.548152032894406 0.687763082121463 0.316201034688504
3.568634289772867 0.675590697365621 0.705993282893216
3.543970376067592 0.671562214101133 0.571298666326923
3.561165123982317 0.676108323999389 0.445066842115599
3.566189508815010 0.678352024187235 0.317595526572466
3.568900989267164 0.679513245558244 0.190398208811830
3.594623775658671 0.685711158344316 0.063875807560458
3.559389273136325 0.660979032108044 0.703703574948697
3.557830152829959 0.661974330549395 0.573175879907406
3.569358092571084 0.664763791375395 0.445798058176029
3.583031018178267 0.669251595660647 0.191026240286745
3.581270884312465 0.670216628844685 0.063596569057461
3.557811847621666 0.647847001054725 0.702940338967191
3.564119229500390 0.649638223438916 0.573801617767567
3.559940052710191 0.650160497514210 0.444335626055168
3.566918664506634 0.652721719379312 0.317246903601476
3.593203604254020 0.658179837083480 0.191444927936689
3.587522245281133 0.658433543980245 0.063666378683210
3.571647839484558 0.637493758117047 0.705230046911710
3.570142955358304 0.638511152143806 0.574427355627728
3.554371747398906 0.636330728811543 0.443360671307927
3.586825125862917 0.643433027957915 0.318815706970934
3.589581738777409 0.644574212203407 0.191130912199231
3.611447756474699 0.649802013903166 0.064050331624830
3.577719152762108 0.625698927974825 0.705993282893216
3.570513451863683 0.625080991731775 0.574114486697647
3.568302707871823 0.625977788464249 0.444823103428788
3.592973876921217 0.631598646495101 0.319164329941924
3.585908742223862 0.631001905280147 0.190816896461773
3.609755355570455 0.636497262943950 0.063980521999081
3.572566663235357 0.613237305537818 0.574114486697647
3.578291717792980 0.614862971482788 0.445798058176029
3.591229690917208 0.618376788101979 0.318815706970934
3.599898903784158 0.620516496235942 0.191444927936689
3.629689794466795 0.626956291902103 0.064294665314952
3.584530867088464 0.601774331479644 0.575678831348050
3.583543040952965 0.604181091568302 0.317944149543457
3.609920601452076 0.609276295473493 0.191863615586632
3.625941091831474 0.613282030369774 0.064189950876329
3.590331911766182 0.591157033517200 0.446773012923271
3.600245717652750 0.579244151882045 0.577556044928532
3.596293227013717 0.579252172334853 0.447260490296891
3.617177553218065 0.583911457538705 0.320558821825887
3.604227755629026 0.582466472835947 0.191340256024203
3.594538841063799 0.564818168611336 0.576304569208210
3.615257702087818 0.570660298289635 0.320210198854896
3.614130098610286 0.571128827708930 0.191758943674146
3.596488525242700 0.552267445453131 0.576304569208210
3.610059442214263 0.555641292057811 0.448479183730943
3.619196747953615 0.558340993601517 0.320384510340391
3.618075546378884 0.558814543215515 0.191863615586632
3.606208490248018 0.540882001761594 0.577556044928532
3.617866091491655 0.543921833312623 0.449210399791374
3.631853571290002 0.547969526999076 0.192491647061547
3.615892696888384 0.529435414974835 0.578807520648854
3.615814593313077 0.530713261263613 0.448722922417753
3.628919977988004 0.533930899305783 0.320907444796877
3.653503564042850 0.538199413173301 0.193538366186406
3.627405860875367 0.518840262948143 0.580371865299257
3.609784925494887 0.516962812121720 0.447747967670512
3.634705972393012 0.521826631337358 0.321256067767868
3.675037101834928 0.528926218589265 0.194585085311265
3.623413680313731 0.504724083286033 0.579433258509015
3.627295581343383 0.506555608832898 0.449697877164994
3.644397921454448 0.510240976294289 0.321953313709849
3.649260165777573 0.511571140928625 0.193119678536463
3.627110847326523 0.492338632371709 0.579746127439096
3.642810413535684 0.495764739074767 0.451404047972666
3.630765674057384 0.479933517081080 0.580058996369176
3.642550879475150 0.482785113440650 0.451160309285856
3.637996109955293 0.483473690838278 0.321081756282373
3.644213922348156 0.470067296766062 0.451160309285856
3.647565300956320 0.471794074768784 0.321779002224354
3.641893250374834 0.456849593904198 0.450672831912235
3.659073993839792 0.460302209381698 0.322650559651831
3.674423653592602 0.449860598028399 0.323870740050298
3.660688868953144 0.433918954050192 0.452622741406718
3.672014661928226 0.436561292769592 0.323522117079307
3.666125417468972 0.421591689938010 0.453110218780338
3.667574711807474 0.408791955580286 0.453110218780338
3.669032775339051 0.410251168813460 0.322999182622821
3.664962962392727 0.396200881184015 0.452622741406718
3.674220937892205 0.384231218927279 0.453597696153959
3.687454954313911 0.371957308787301 0.455060128274821
3.688730862382768 0.359083422841240 0.455060128274821
3.699783243718985 0.347778070551013 0.456278821708872
3.700974675387516 0.334861298152285 0.456278821708872