# This PCD file was generated using the MATLAB® pcwrite function
# from Computer Vision Toolbox®.
# .PCD v.7 - Point Cloud Data file format
VERSION .7
FIELDS x y z
SIZE 8 8 8
TYPE F F F
COUNT 1 1 1
WIDTH 449
HEIGHT 1
VIEWPOINT 0 0 0 1 0 0 0
POINTS 449
DATA ascii
2.383112291519516 1.359854559928658 0.434574943881761
2.382216321026323 1.349440227275615 0.433636337091520
2.380256954809103 1.336830640260728 0.432384861371198
2.391087024546727 1.331408626481808 0.531975479109807
2.379500379448952 1.326045275852360 0.431446254580957
2.394001346701003 1.322104957563628 0.531593861119054
2.391260751165715 1.321136137620383 0.432697730301279
2.395157976246187 1.311854075818020 0.530830625137548
2.402557437083313 1.316997284776581 0.433949206021600
2.408348499451486 1.308170847646680 0.532738715091313
2.418085510995096 1.302549345015200 0.533883569063572
2.418648324679372 1.303941965018779 0.435200681741922
2.422617524905247 1.294100715827759 0.533883569063572
2.414474969150219 1.290834672024618 0.433636337091520
2.425385123616564 1.284717350369706 0.533501951072819
2.417444449916230 1.281051561612475 0.433323468161440
2.419426286199187 1.270765910149864 0.531212243128301
2.428896087623348 1.276280695489108 0.434574943881761
2.436036234570063 1.268660631747377 0.533883569063572
2.443847513072357 1.273270924468397 0.436452157462244
2.432538399950762 1.268458561478813 0.336846865171828
2.443626282752070 1.260709511801695 0.634811875358387
2.459638514696927 1.270057801656268 0.538081366961856
2.453542281463441 1.267452402426933 0.437390764252486
2.437819981600255 1.246421907622759 0.632112462706261
2.464276988327693 1.261034245104809 0.538081366961856
2.450386345627987 1.255545473188611 0.338065558605879
2.452585089708951 1.243191160136408 0.634811875358387
2.458158853714998 1.247095163983092 0.535791659017338
2.450218725016256 1.243604666359481 0.435200681741922
2.458293748443660 1.248782482337048 0.338553035979500
2.460176377954616 1.236801863600257 0.635711679575762
2.455265809346749 1.235407024164370 0.534265187054325
2.454329194567853 1.235472610503074 0.435200681741922
2.458875740765672 1.238837265163814 0.338065558605879
2.460990341418320 1.226468272051793 0.634811875358387
2.464833718932295 1.229457939899656 0.535410041026585
2.463929420245962 1.229543953279042 0.436139288532164
2.454305566933965 1.225811720265743 0.336846865171828
2.465043925412572 1.218300590449888 0.634811875358387
2.475936104502864 1.224759399816044 0.536936512989597
2.463693530762435 1.220309479415314 0.337578081232259
2.465781525452947 1.207973904849211 0.633912071141012
2.483721738304627 1.217837964028654 0.537699748971103
2.465147566447242 1.209264266364872 0.434887812811842
2.478629625118095 1.216951400751970 0.339040513353120
2.491019171001202 1.209573919771271 0.639310896445264
2.484426131859000 1.207444398866754 0.536936512989597
2.486907703498467 1.209723777627351 0.438016502112646
2.486432373313723 1.210029254377987 0.339527990726741
2.482722272586430 1.193786356587811 0.738151916632389
2.489958300920976 1.198336004456354 0.637961190119201
2.483319525083060 1.196208775452136 0.535791659017338
2.487556540312923 1.199319714710397 0.437390764252486
2.495386389967812 1.189703685176046 0.740740107083414
2.511715146152512 1.198026669822132 0.642460211206078
2.494566781152086 1.190916370066471 0.537318130980350
2.502421903023355 1.195739211918514 0.439267977832968
2.487655435359791 1.189216665185093 0.338553035979500
2.501476952374575 1.181374628117147 0.741257745173619
2.498263517965115 1.180923754823426 0.637961190119201
2.502257959380219 1.183880714956874 0.538081366961856
2.495868683423616 1.181924208421122 0.437390764252486
2.495379313161093 1.182225703388707 0.339040513353120
2.501881642683082 1.171434565992910 0.740222468993209
2.518252955193360 1.179635883089602 0.642010309097391
2.515263085085886 1.179306151609582 0.539989456915622
2.503555671250084 1.174883204760603 0.438016502112646
2.515662967356888 1.181100792342060 0.341234161534413
2.549741422864972 1.198186980737856 0.246476440490377
2.504405802052224 1.161444076047537 0.739704830903004
2.520587717729404 1.170017863716687 0.641560406988703
2.521144777405091 1.171346282176011 0.540371074906375
2.516801606910436 1.169862534921146 0.439580846763049
2.528769632416052 1.176499123796671 0.342452854968464
2.521397486208332 1.174140080454963 0.243338833751462
2.509998763219491 1.153939731976598 0.740222468993209
2.524656485958278 1.161212242483382 0.641560406988703
2.527843449294743 1.164816878016273 0.440832322483371
2.532716972933892 1.168670666535460 0.244036079693443
2.514211304589324 1.144732375829759 0.740222468993209
2.518054823775132 1.147543696064803 0.638860994336577
2.514971203071826 1.147198794385366 0.537318130980350
2.533892824648130 1.156364161192102 0.441145191413451
2.517059436200833 1.149743869965686 0.339771729413551
2.542216923881456 1.162308048896128 0.244559014149929
2.535601896460457 1.144335430387854 0.745398849895260
2.522538420783736 1.140029981271701 0.538081366961856
2.525114956361345 1.142256043769652 0.438955108902888
2.526482974679251 1.143406105799434 0.340502945473982
2.535369445005217 1.148494286198560 0.243513145236957
2.518614238797828 1.125575679422032 0.739187192812799
2.533120268172083 1.133119454882174 0.640660602771328
2.555172031797540 1.144054246798522 0.544187254813906
2.550383687177843 1.143513769733091 0.343184071028895
2.550269346884047 1.144531846189363 0.244559014149929
2.545295348728239 1.127388212060880 0.745916487985465
2.547750020792454 1.129007405691559 0.643360015423454
2.551971418130235 1.131943972024240 0.542660782850893
2.534833244643472 1.125401290873965 0.439267977832968
2.545288877506251 1.130575168031469 0.341965377594844
2.536043348018836 1.127528525589924 0.242815899294976
2.558813024089087 1.123240387225815 0.645159623858205
2.555907092474947 1.123029033191893 0.542660782850893
2.542557745689909 1.117692993950459 0.439893715693129
2.540134925684161 1.117686117187176 0.340746684160792
2.547257213313700 1.121881472045121 0.243513145236957
2.551138589108636 1.109266628784811 0.745398849895260
2.551801897506892 1.110084660238698 0.642460211206078
2.559617137707530 1.114547165044874 0.542660782850893
2.556921635101686 1.114435371835284 0.441770929273612
2.551105815826252 1.112430419378886 0.341721638908034
2.558267619484292 1.116616349485535 0.244210391178938
2.558543714146159 1.101883005691995 0.746434126075670
2.577137414769844 1.110423979480501 0.647859036510331
2.567097513318559 1.107160644563252 0.543424018832400
2.560796162867954 1.105503260189445 0.441770929273612
2.556795758023819 1.104305724099000 0.341965377594844
2.582266559558397 1.116376510335819 0.246127817519387
2.551712664017457 1.088397685764484 0.743328297534440
2.564866580646000 1.094537442745819 0.643809917532142
2.585390105696402 1.104362680708413 0.546476962758424
2.561197929632973 1.094557483797248 0.441145191413451
2.564285155467080 1.096935587705641 0.342452854968464
2.562803600485142 1.082043557309602 0.745398849895260
2.579441714818733 1.090129407840044 0.646509330184268
2.581996815691900 1.092271672405144 0.544950490795412
2.574098800045773 1.089460249059615 0.442709536063853
2.591860318694307 1.098044578429763 0.345621457896998
2.562483210435269 1.086654105193626 0.243513145236957
2.567972364654452 1.074732770191016 0.745916487985465
2.588435104695550 1.083827651239643 0.647859036510331
2.571119541872831 1.077632288907763 0.541897546869387
2.584984204333722 1.083973838872843 0.443961011784175
2.582674612970052 1.084065550982160 0.343915287089326
2.589951582120169 1.088183527627751 0.245779194548396
2.656850936734312 1.116837295308224 0.151041569717136
2.571708237153275 1.065762326182261 0.745916487985465
2.592202599587763 1.074785723529275 0.647859036510331
2.583279181426877 1.072671347375269 0.443022404993934
2.582776860025199 1.073519925680118 0.343427809715706
2.596197090702914 1.080692544521550 0.147378052780130
2.582746649377918 1.059261597812903 0.747987040346285
2.592518746429213 1.063798054690837 0.646959232292956
2.596925339730177 1.066665509086401 0.545713726776918
2.605277593811474 1.071159119946007 0.446151094294738
2.610568327581207 1.074932702919451 0.246999374946863
2.596260478840128 1.070101348993310 0.147168708955158
2.586611689405343 1.049788243268920 0.747987040346285
2.598021735638482 1.055475472876241 0.647409134401643
2.609725997784679 1.061291930774634 0.547621816730684
2.600037470275680 1.057880794420206 0.444586749644336
2.608777232723130 1.062498289795089 0.345865196583809
2.610614723662546 1.064309246011732 0.246650751975873
2.607562498192346 1.063595683699504 0.147587396605102
2.591871132602311 1.041925514776129 0.748504678436490
2.614311214554028 1.054127828293554 0.346108935270619
2.610618808085782 1.053698581244390 0.246302129004882
2.616630650404621 1.057187406087570 0.147901412342559
2.606262018571812 1.037157623676689 0.751610506977720
2.618000557691418 1.042358280127692 0.650558449162458
2.615247812579386 1.042320029396833 0.547240198739930
2.618368709149713 1.044093497962350 0.446463963224819
2.610600302944165 1.042052107025327 0.345133980523378
2.617981324707180 1.046057928622586 0.246650751975873
2.627722688665073 1.051014090967867 0.148320099992503
2.619810099971591 1.032498870282422 0.650108547053770
2.626175332901624 1.036066726608209 0.548766670702943
2.623653943957268 1.036130515237875 0.446776832154899
2.629027729537603 1.039844298560312 0.247347997917854
2.627842932344666 1.039906114432295 0.148110756167531
2.622617029898784 1.021988375316307 0.754198697428745
2.632475735370466 1.026888731739577 0.652358057597208
2.633433427555456 1.028321576304273 0.549529906684449
2.631113809015692 1.027945068741934 0.447402570015060
2.617811521459469 1.023801432701746 0.345133980523378
2.641917843495765 1.034292589436304 0.248219555345330
2.629417376845252 1.030457402015105 0.148006084255045
2.616980006301353 1.009808542457263 0.751610506977720
2.628595190882804 1.015344782175560 0.650558449162458
2.645984641476136 1.023123361543484 0.551437996638214
2.617750503777379 1.013256592386135 0.444586749644336
2.628596673411043 1.017982383667927 0.346108935270619
2.641617799605454 1.024085641775878 0.247870932374340
2.642129869709669 1.025345188659526 0.148529443817475
2.620488952381433 1.000667425395448 0.751610506977720
2.649539888242139 1.013880918292414 0.551437996638214
2.636028815268945 1.009765757121694 0.447089701084980
2.656231082896502 1.018036166137539 0.349277538199153
2.653150803676079 1.018980503780785 0.148948131467418
2.634461108798480 0.996530942384192 0.754716335518950
2.662784122024639 1.007775893983659 0.657306980792774
2.654723378741564 1.005784716166293 0.551819614628968
2.657832824184786 1.008023848747815 0.450218390385784
2.641032795563861 1.002179466054256 0.346840151331050
2.646664742967631 1.005373623252734 0.247696620888845
2.652781594121950 1.008756951370576 0.148738787642446
2.645333456560590 0.989575924290023 0.756786887879771
2.651685909012213 0.993007552505271 0.653707763923272
2.661335291631896 0.998740139612405 0.450218390385784
2.644514964659773 0.992954435568506 0.346840151331050
2.665077988186761 1.001736958697247 0.249091112772807
2.648942665443053 0.979873645695558 0.756786887879771
2.655479227407288 0.982818514373243 0.653707763923272
2.662024774941120 0.986297729141872 0.551819614628968
2.670706805885291 0.990574843662557 0.451156997176026
2.653891353604762 0.984864877956108 0.347571367391481
2.674507745309706 0.993577952505089 0.249614047229293
2.665893801353616 0.990907413287919 0.149052803379904
2.685666678919817 0.999324086424935 0.050018596849255
2.648887676199361 0.968831038052027 0.755751611699361
2.668043394863876 0.976893288541513 0.655957274466710
2.683884652249789 0.983756086257068 0.555635794536498
2.665046553046580 0.977378799079210 0.449592652525624
2.672220792015767 0.981068252326327 0.349521276885963
2.668609267682751 0.980799546393109 0.248742489801816
2.692891768214730 0.991324909511577 0.050088406475004
2.648118056823058 0.959650983445815 0.754716335518950
2.676595313277578 0.970499387914073 0.657306980792774
2.679580199994189 0.972640123805435 0.554109322573486
2.671647960059521 0.970816449421946 0.450218390385784
2.681790520002874 0.976622024276619 0.149576162942333
2.694114072631175 0.982175142539262 0.050053501662129
2.655254902093086 0.951241770699992 0.755751611699361
2.690972704937949 0.965097643708032 0.660006393444900
2.675567951011421 0.960627051842571 0.552582850610474
2.674932724861022 0.961980417818139 0.349033799512342
2.682553840873574 0.965778809586596 0.249439735743798
2.690820422290589 0.969285504544062 0.149890178679791
2.691882730196220 0.970729872583639 0.049948787223505
2.678755021384417 0.948596904332090 0.761445630691616
2.684787666355517 0.952315502217008 0.553727704582733
2.693584540106201 0.956494491335809 0.452721341826428
2.697505451888422 0.959477617712873 0.250485604656770
2.694522366295029 0.958946375910133 0.149890178679791
2.714427320733155 0.967097951717562 0.050297835352251
2.685101105650131 0.940835177179858 0.656857078684086
2.697358417820451 0.946187312133781 0.555635794536498
2.698936081516053 0.947269777716466 0.453034210756509
2.691276698239800 0.945636782647714 0.350252492946394
2.702717717383477 0.950716859312488 0.250659916142265
2.697853297866876 0.949534895369390 0.149890178679791
2.717786585346837 0.957616940257250 0.050297835352251
2.688963146156215 0.931136974493701 0.762480906872026
2.704941011637113 0.937198549644196 0.660906197662275
2.713628663875219 0.941269692397093 0.558307120471770
2.702062501632138 0.938314574733709 0.453034210756509
2.692686060865962 0.935585190968628 0.350008754259584
2.704138078582688 0.940622248205336 0.250485604656770
2.708696472469880 0.942737855785953 0.150308866329735
2.724889435122438 0.949440185950380 0.050367644978000
2.692357872528125 0.921275177616028 0.762480906872026
2.713183629936214 0.930517816655682 0.557543884490264
2.720430869598624 0.933534025942406 0.455537162197152
2.703445027392467 0.928760151965378 0.350983709006825
2.719524975437394 0.935876654502902 0.150727553979678
2.724405727930538 0.938620028221300 0.050297835352251
2.702398109696938 0.915762809296896 0.764551459232846
2.720324908095147 0.922367009964746 0.663155708205714
2.717952608762748 0.922620588433337 0.557925502481017
2.717577776362268 0.923551396969255 0.454598555406911
2.717625923823217 0.924096886569915 0.352446141127686
2.719747472669142 0.925877563168460 0.251357162084246
2.733795242239698 0.931192278887282 0.151355585454594
2.731126385428419 0.931347286008861 0.050367644978000
2.714737287191983 0.909392225286989 0.767139649683871
2.727223421343743 0.914104308322983 0.664055512423089
2.723017853150325 0.913752116635097 0.558307120471770
2.732020191504123 0.917834160151573 0.456475768987394
2.709545295157842 0.910809930501316 0.350983709006825
2.726739466323295 0.917649214332296 0.251705785055237
2.745730238583413 0.925641084075745 0.050577073855248
2.706891495376666 0.896267121123861 0.764033821142641
2.730397625662888 0.904578952991375 0.664055512423089
2.740990338597305 0.909681291743535 0.457414375777635
2.724011058102133 0.905101913013944 0.352446141127686
2.750721883164865 0.915043380457605 0.253623211395685
2.721279105665074 0.905776613615831 0.150308866329735
2.754635997704774 0.917947643650966 0.050681788293871
2.728519803002493 0.892344860294272 0.769210202044692
2.733538560948625 0.895042575650695 0.664055512423089
2.749851919481292 0.901446968897535 0.562504918370054
2.744149019834596 0.900107907849265 0.457414375777635
2.749785839990310 0.903020089882567 0.355371005369410
2.736864794117658 0.899835359448524 0.252054408026227
2.733910434073469 0.899392782991186 0.150832225892164
2.705882746910938 0.874497877068341 0.761963268781821
2.742363298370300 0.886816460499557 0.665405218749153
2.745666216974278 0.888943309572041 0.560978446407042
2.760630127899934 0.895385310154091 0.356345960116651
2.749619384320091 0.892874961778254 0.252925965453704
2.759982585298450 0.896772703223284 0.152088288841995
2.745921250213965 0.893263718393372 0.050402549790875
2.736523300762367 0.873862275479329 0.769727840134897
2.749154723548075 0.878424682236835 0.666305022966528
2.745012681364291 0.878157330526312 0.560215210425536
2.759926445840343 0.883459420542525 0.458978720428037
2.756177258367001 0.883320082984245 0.355371005369410
2.766156390711997 0.889180881015497 0.050716693106746
2.737563849385304 0.864201270312122 0.769210202044692
2.752052568981350 0.869303326769619 0.666305022966528
2.757269028338898 0.872009690619175 0.562123300379301
2.747737013741133 0.870577983352520 0.353908573248548
2.772725389415523 0.879560303522266 0.254494768823162
2.765869462377856 0.878448216733772 0.152088288841995
2.776712908026556 0.882425669329734 0.050856312358244
2.775755680438781 0.865083107525247 0.779045325758588
2.771532168387688 0.866421082220786 0.459917327218279
2.773492704615740 0.868096835227581 0.356833437490272
2.771976298817969 0.868684715728278 0.254146145852171
2.761447514715047 0.865914519769898 0.151669601192051
2.787407738222929 0.875123714599363 0.050995931609742
2.769228953730552 0.853513514158016 0.776457135307562
2.776527846251542 0.856293789228540 0.670804044053405
2.785651000224757 0.860172387560134 0.566702716268338
2.770615405021768 0.856059293157291 0.459291589358118
2.783941840445434 0.861241536075505 0.357808392237513
2.772938536256285 0.858898236983450 0.253971834366676
2.771784749231220 0.859601335693667 0.152088288841995
2.797933836718080 0.868246163703684 0.051135550861241
2.759254507592502 0.839903972422479 0.772833668676127
2.786758721289279 0.849870721324023 0.566321098277585
2.784922915613000 0.849842155514638 0.461168802938601
2.788829628183803 0.852098572058856 0.358052130924323
2.786226525192497 0.853430416508931 0.152716320316910
2.800947535447761 0.858474262344091 0.051135550861241
2.773560803229132 0.832635795200427 0.775939497217357
2.803113006740225 0.842574268950806 0.675752967248970
2.791734891235221 0.840216834176724 0.566702716268338
2.785981086332820 0.839545826435303 0.460855934008520
2.784331722630256 0.839578911483746 0.357077176177082
2.786643048053837 0.841337139479749 0.254669080308657
2.800954400979952 0.846191440162677 0.153344351791825
2.807903276481834 0.849360465868280 0.051205360486990
2.770893741966935 0.821302192180533 0.774386582946742
2.783618656989689 0.826131040959294 0.670354141944718
2.796613229076497 0.831581137850078 0.462107409728842
2.791050550068500 0.830987572406164 0.357564653550703
2.797200292489328 0.833881624161891 0.255366326250638
2.818515206467686 0.841843051860663 0.051344979738488
2.797704199658117 0.819166159069748 0.781115878119408
2.786342900964939 0.816895686498496 0.670354141944718
2.806808167485623 0.823959745365905 0.568610806222103
2.806792717349069 0.825019505897614 0.463358885449164
2.810930679234161 0.826768819486491 0.359758301731995
2.803772621209534 0.825726924170696 0.255714949221629
2.798842099727111 0.825336684051970 0.152925664141882
2.789411204529214 0.806177086502861 0.778010049578177
2.800409010635692 0.810414884978663 0.673053554596844
2.817209954502881 0.816342793361676 0.570137278185116
2.819141142977024 0.817969196295304 0.464923230099566
2.821424988774975 0.819165764901110 0.360733256479237
2.802811500700211 0.814822515005497 0.255366326250638
2.801706010887471 0.815561873682053 0.152925664141882
2.795923807034345 0.797495106989550 0.779045325758588
2.807108328051787 0.801215142596129 0.673953358814220
2.812632386787752 0.803853722912374 0.568610806222103
2.818321936783629 0.806544046747835 0.464297492239405
2.847309039322801 0.815377216890666 0.363658120720960
2.807694356179173 0.805093401255425 0.255540637736134
2.812355161490732 0.807492387214879 0.153344351791825
2.809986111286193 0.790380684357964 0.782151154299818
2.821142546991847 0.794581497657269 0.676652771466346
2.815421224404259 0.794030906338963 0.568610806222103
2.828724228107540 0.798848796549783 0.465548967959727
2.832945369392582 0.800574774227083 0.361464472539667
2.820073115800439 0.798000255457971 0.256412195163610
2.828607962797538 0.801481911128165 0.154077055179227
2.806871333101013 0.779997248122745 0.780598240029203
2.818129458677477 0.783655615909394 0.675303065140283
2.829386653067890 0.787850093841189 0.570900514166622
2.833260547083107 0.789994570406652 0.465861836889808
2.816463997117680 0.785841017441878 0.359027085671564
2.853406295764588 0.797222215026349 0.259201178931535
2.846776404481975 0.795905535923710 0.154914430479114
2.832123632036970 0.776906926835564 0.678002477792409
2.845371421696774 0.781609120234281 0.573571840101894
2.836136991465762 0.779604845142200 0.465861836889808
2.836415128402325 0.780746310145120 0.361220733852857
2.850409453428452 0.785668832041223 0.258678244475049
2.837985111529668 0.782777244060055 0.154286399004198
2.834818289034279 0.767016237288442 0.678002477792409
2.844426015511197 0.771747360256713 0.466800443680049
2.858045069377974 0.777585050582533 0.155228446216571
2.854424194739662 0.761637798318537 0.682051596770599
2.858345548219551 0.763753008788556 0.575098312064906
2.852960509896737 0.762847631991409 0.467739050470290
2.862889557405576 0.766573426892475 0.363901859407770
2.828883204777803 0.758526176670406 0.256237883678115
2.868458029776025 0.769674282493957 0.155647133866515
2.864791069508615 0.754771227290283 0.575861548046412
2.855474517260375 0.753382679613607 0.467739050470290
2.865547956320139 0.756575407179643 0.363901859407770
2.854628118445534 0.754758313656548 0.258329621504059
2.852126517909921 0.739734789096845 0.680251988335848
2.867775876068418 0.745396436782608 0.469303395120693
2.852802804798521 0.742567803562518 0.361951949913288
2.863029222669407 0.746296874181920 0.258852555960545
2.860355368103449 0.731222468196784 0.681601694661911
2.885205835088031 0.738648292598227 0.578914491972437
2.875972395586843 0.737354215734388 0.470242001910934
2.868837161679298 0.736058496997057 0.363658120720960
2.865616842355667 0.736298490478034 0.258852555960545
2.866669777830134 0.722185633270877 0.682501498879286
2.882055810413881 0.727131728825479 0.577769638000178
2.876740343339510 0.726324725573034 0.469929132980854
2.879087101229350 0.727986389851746 0.364633075468201
2.868169545405036 0.726291135209403 0.258852555960545
2.884178989055504 0.716433784058078 0.686100715748788
2.890166776837003 0.718992359522623 0.578914491972437
2.884758308663187 0.718716266854709 0.470867739771095
2.912303386145448 0.726118786941078 0.368532894457166
2.878294397623429 0.718706658478924 0.259549801902526
2.894233811336286 0.708214507974824 0.687900324183539
2.883124777865312 0.706562896909090 0.577006402018671
2.904515465665902 0.712879929973456 0.473683560141819
2.878850904853923 0.708179230557261 0.259375490417031
2.885442637905664 0.694864371077211 0.685200911531413
2.889512151953500 0.696911593473805 0.577769638000178
2.909151542098579 0.702185652326041 0.473996429071900
2.898129637812264 0.700595947574108 0.366095507589063
2.900791604742157 0.702311284145597 0.261118605271984
2.905298089127131 0.689996594701693 0.580440963935449
2.905819389231712 0.690656190838230 0.473057822281658
2.906350908165257 0.691854430804314 0.366826723649494
2.925350288003641 0.673219542174440 0.583493907861474
2.924045089270122 0.673456564973486 0.475247904792221
2.922715852858265 0.674224844686805 0.368289155770356
2.931396067303691 0.664382936614797 0.584257143842980
2.943483655253187 0.668202847899251 0.478063725162946
2.930742877363483 0.665848445186352 0.369020371830787
2.936273202737496 0.655258742220851 0.476499380512543
2.933049267092460 0.655614186837238 0.369020371830787
2.947468921015886 0.646425363289235 0.586546851787499
2.957837029753181 0.649240340758338 0.479628069813348
2.948891410899586 0.648355826152573 0.370726542638459
2.955464808613589 0.637374477075943 0.587691705759758
2.964718454808074 0.640994818758764 0.372432713446131
2.953830523011498 0.626239740586129 0.586928469778252
2.960255431385999 0.628681731205806 0.479315200883267
2.959842463152717 0.616726075579140 0.587691705759758
2.964473554360107 0.618230911671907 0.479628069813348
2.971487791645488 0.608877972172088 0.589599795713523
2.978011332410190 0.611297935625757 0.481505283393831
2.975519726082892 0.598889214442118 0.589981413704277
2.974317802891392 0.599727668814359 0.480566676603589
2.997823010306537 0.582717763483551 0.483695365904394
3.019343160908667 0.575424379000077 0.486824055205199
3.015606533472555 0.563265981838276 0.485885448414957