# This PCD file was generated using the MATLAB® pcwrite function
# from Computer Vision Toolbox®.
# .PCD v.7 - Point Cloud Data file format
VERSION .7
FIELDS x y z
SIZE 8 8 8
TYPE F F F
COUNT 1 1 1
WIDTH 385
HEIGHT 1
VIEWPOINT 0 0 0 1 0 0 0
POINTS 385
DATA ascii
3.219247222430734 0.853567934531918 0.527497016115658
3.208536031885953 0.839948306502228 0.525306933605095
3.211593045211226 0.828182792297267 0.525306933605095
3.218293399008789 0.817940354171304 0.525932671465256
3.221269683618057 0.806139225251223 0.525932671465256
3.227621902020163 0.796962420173268 0.526558409325417
3.232440737625605 0.785593746084991 0.526871278255498
3.226846722662844 0.785427222688365 0.407774823033623
3.219525135918120 0.771751097844897 0.524368326814854
3.231363875790160 0.775185368495810 0.408018561720434
3.227967095618598 0.761869447549935 0.525306933605095
3.230186231990050 0.762988415346544 0.407531084346813
3.238434619411653 0.751820096409233 0.526558409325417
3.223162325715500 0.749460381260413 0.406312390912762
3.244890733998147 0.741391259301852 0.527184147185578
3.219953589259787 0.736876376075677 0.405581174852331
3.241677077520997 0.728760150041801 0.526245540395337
3.239935571052208 0.729556844344908 0.407774823033623
3.251255042818175 0.718404896269889 0.647224112317240
3.234557295931180 0.715307445907032 0.524681195744934
3.248276798832574 0.719530857010098 0.408506039094054
3.246069014108542 0.705383947141825 0.645697640354228
3.244632275483412 0.706257900470328 0.525932671465256
3.250768640623044 0.708187871377003 0.408506039094054
3.240831791230887 0.692407977106483 0.644171168391215
3.247199046523927 0.694360984891518 0.525932671465256
3.243515559957089 0.694757389583931 0.407287345660003
3.250795174608805 0.683272485894971 0.645697640354228
3.253349908122406 0.684402379370953 0.526558409325417
3.251628916500888 0.685225687395656 0.408018561720434
3.271139172734976 0.690529781445800 0.292494672661141
3.239701734155795 0.669141115664485 0.643026314418956
3.251850150501186 0.672242087176068 0.525932671465256
3.252057142815681 0.673468658187896 0.407774823033623
3.259873678650501 0.676274182117556 0.291274492262674
3.263182242636481 0.662122798110066 0.647224112317240
3.246318349351794 0.659880911599592 0.524681195744934
3.266059620429131 0.664487339831202 0.409237255154485
3.264166708631546 0.665288879401468 0.291448803748169
3.255846616240607 0.648809712316005 0.645316022363475
3.250652347229468 0.648364519007290 0.524994064675015
3.258626163093591 0.651137759996708 0.408018561720434
3.252793704810172 0.651153177167905 0.290228623349702
3.254238099553131 0.636686812321466 0.644552786381968
3.262476973223977 0.639481227833941 0.526558409325417
3.262827161885869 0.640141238888725 0.408262300407244
3.266776734946876 0.642100408166003 0.291274492262674
3.268008898435287 0.627544920528619 0.646842494326487
3.284087338225921 0.631821123778815 0.529687098626222
3.259193957499552 0.627621830953573 0.407531084346813
3.284648681293995 0.633712794720286 0.292668984146636
3.277896766998647 0.617587620060913 0.648368966289499
3.270744042643293 0.617422288607741 0.527184147185578
3.263315487506605 0.616609862635544 0.407774823033623
3.275095032130267 0.620019749021802 0.291623115233664
3.267052237290291 0.604922565317684 0.526245540395337
3.267399828110737 0.605576763551504 0.408018561720434
3.267444852985164 0.606764916861575 0.290751557806188
3.281081349840516 0.593316160373462 0.769782507964706
3.278264826631994 0.593988673747031 0.647605730307993
3.269143907098771 0.593514739406699 0.526245540395337
3.281212395076267 0.596297353742753 0.409480993841295
3.263662478474532 0.594284925592107 0.290228623349702
3.294645450376973 0.583899853254343 0.772481920616832
3.268720200694019 0.580482110711295 0.645316022363475
3.269352403729392 0.581183005011560 0.525932671465256
3.275456552268732 0.583447675651825 0.408506039094054
3.273562603096817 0.584289330882291 0.290925869291683
3.289325859721381 0.587695275402697 0.175116109588890
3.269783376941686 0.567728660825172 0.766183291095204
3.274594940547526 0.569741667141299 0.646079258344981
3.290721912390586 0.573731097167312 0.529061360766061
3.285395218230592 0.574575079330489 0.291797426719160
3.289389920897972 0.575865387896572 0.175011437676404
3.286240558025313 0.559956597634354 0.647987348298746
3.269435618339511 0.557680341270296 0.525306933605095
3.277493219427202 0.560232175686920 0.408262300407244
3.291308419472007 0.563776173284327 0.292146049690150
3.283505911245081 0.563029575117338 0.174592750026461
3.289045510414650 0.547447276779054 0.769782507964706
3.297857644966878 0.550097148576589 0.649895438252512
3.281008688786784 0.548463891477868 0.526871278255498
3.279428827053835 0.548788176216009 0.408262300407244
3.281466613384573 0.550306778073719 0.291100180777178
3.291360331963213 0.552556593001128 0.174906765763918
3.292859819462563 0.536276275665360 0.770232410073394
3.284256833471610 0.536052086395084 0.646842494326487
3.288845440788095 0.537390353333004 0.527809885045739
3.289160474623494 0.538620683940171 0.409237255154485
3.287299727408130 0.539494297445478 0.291448803748169
3.326773295751866 0.546568778421067 0.176686188276178
3.292787230634242 0.524472253035039 0.769782507964706
3.288046702411167 0.524894114272786 0.647224112317240
3.288658839523317 0.526169112752002 0.527497016115658
3.291020572984964 0.527136089813000 0.409237255154485
3.314736521469873 0.532121582277942 0.293714853059608
3.312885264871970 0.532417521095059 0.175848812976291
3.294597919659911 0.512975085363950 0.769782507964706
3.289858892888283 0.513413491563125 0.647224112317240
3.296420354763583 0.515026831480060 0.528435622905900
3.284995805197372 0.514416615110606 0.408262300407244
3.314605484871626 0.520238820265569 0.293540541574113
3.314723565614735 0.520850149787023 0.175848812976291
3.288662168228953 0.500299319696924 0.767982899529955
3.301335098291028 0.503406349549310 0.649132202271005
3.309826319807294 0.505883413612930 0.530312836486383
3.292658195783957 0.503847505922316 0.408993516467675
3.328217420055845 0.510477865918935 0.294586410487085
3.300728518080264 0.506851306217214 0.175011437676404
3.300026430761883 0.490248498973242 0.770232410073394
3.310839567067586 0.493036155655702 0.650658674234018
3.298323467349423 0.492937744968699 0.409480993841295
3.298452614885375 0.494134201524146 0.291797426719160
3.312353480435434 0.496807765242847 0.175534797238834
3.311276631393359 0.480702353549865 0.772481920616832
3.293730006377177 0.479916159393307 0.527184147185578
3.311725472418329 0.483718819144012 0.410943425962157
3.300073086935256 0.483193421567063 0.291797426719160
3.327747485992377 0.489025375282879 0.058709895255022
3.309075442206161 0.468594446660046 0.771582116399457
3.302456244415850 0.468833059064153 0.648368966289499
3.305163750846643 0.469805930646401 0.528748491835980
3.299637113562984 0.470195478276176 0.409237255154485
3.307656737693345 0.472516361657415 0.292320361175645
3.327521204005290 0.475946735123541 0.176162828713749
3.343290376543099 0.479393217519596 0.058954228945144
3.324100802656084 0.458891988166021 0.899137362686157
3.304820006415676 0.456818081589619 0.770232410073394
3.318443286320011 0.460472058032763 0.530625705416463
3.303144352785945 0.459524428448658 0.409480993841295
3.323018494039112 0.463471723761448 0.293540541574113
3.319190885922175 0.463528466965523 0.175639469151319
3.348822479075860 0.468858365081604 0.059024038570893
3.296963191500785 0.443423342597148 0.891372791333081
3.310257075360570 0.445799509991094 0.771132214290769
3.321135744063215 0.448444940206523 0.651421910215524
3.306327460939775 0.447033011621736 0.528435622905900
3.318497969615411 0.449858134622840 0.411187164648968
3.328564542441055 0.452406062920417 0.293889164545103
3.310893601073533 0.450592843410531 0.175116109588890
3.352420033736268 0.457436289126818 0.059058943383767
3.311899441353716 0.433667832090942 0.894996257964517
3.313725240138325 0.434495190448337 0.771582116399457
3.328520384980254 0.437617030116963 0.652566764187783
3.311708560574171 0.436582737134806 0.529061360766061
3.322016069122724 0.438531467822675 0.411430903335778
3.320247644591063 0.439477258235916 0.293017607117627
3.332168597940178 0.442238728155913 0.176162828713749
3.352014092923798 0.445467937915884 0.059024038570893
3.301968229619865 0.420063414836617 0.891890429423287
3.322954018605565 0.423911898778026 0.773381724834208
3.312501213553149 0.423753577192818 0.649132202271005
3.313286472191920 0.424441786037130 0.529061360766061
3.331402246181105 0.427944485135980 0.412405858083019
3.325713603914460 0.428393837236125 0.293366230088617
3.343671342132715 0.431300297557097 0.176686188276178
3.357514994263131 0.434277538451576 0.059093848196642
3.311011872065974 0.410061149203105 0.893960981784107
3.336017040233183 0.413749169560200 0.776081137486334
3.315908451019269 0.412430529602218 0.649513820261759
3.326509241058599 0.414338628928806 0.530938574346544
3.321057046809624 0.414836826348169 0.410943425962157
3.331142594533800 0.417277605407718 0.293714853059608
3.356973306984468 0.421703549508213 0.177314219751094
3.362978566940183 0.423054157164344 0.059163657822391
3.322013188135433 0.399654800570141 0.896549172235132
3.321962983091856 0.400236956424058 0.772481920616832
3.325124205871352 0.401795412403247 0.651040292224771
3.324013147140736 0.402249789426061 0.530312836486383
3.328396759325353 0.403959158366360 0.411674642022588
3.344445620425107 0.407091646686009 0.294760721972580
3.338599462759494 0.407562750364898 0.176267500626235
3.356495143940835 0.410341944690492 0.059024038570893
3.329144450625428 0.388728528775467 0.898102086505747
3.325207462134475 0.389445414895861 0.772931822725520
3.334237711271581 0.391682911309568 0.652566764187783
3.321336835564930 0.391342819364905 0.529687098626222
3.341820037949671 0.395530466487150 0.294412099001589
3.347935278280515 0.396846775616487 0.176686188276178
3.355851720638967 0.398973070749095 0.058989133758018
3.368528472797455 0.393923162729435 -0.059198562635266
3.324722327209479 0.376453222484931 0.896549172235132
3.345909524361411 0.380035179788320 0.777430843812397
3.355090969307930 0.382264330495456 0.656382944095314
3.334524707619922 0.380510651967178 0.531564312206705
3.348819220200263 0.383326060659873 0.413868290203881
3.335262799617757 0.382953838703957 0.293714853059608
3.365170043748959 0.388173115017220 0.059128753009517
3.367896039699271 0.381937072527722 -0.059163657822391
3.343341618016488 0.367927125643610 0.776531039595022
3.333804820556745 0.369233425422335 0.531251443276624
3.330638741254078 0.370648181060250 0.293191918603122
3.348574020962091 0.373827492590466 0.176581516363692
3.360542586572571 0.375757483894759 0.059024038570893
3.375171931799748 0.370833777912272 -0.059268372261015
3.333032592756061 0.353845132564843 0.898102086505747
3.350418889839935 0.356873657936529 0.777880745921085
3.336204373480606 0.356537394180246 0.652185146197030
3.331145137865038 0.357172831034776 0.530625705416463
3.345492485209027 0.359301808203237 0.413137074143450
3.343797790631348 0.360300513136672 0.294237787516094
3.361772659961723 0.363424488564978 0.177209547838608
3.361833751390061 0.364024711915842 0.059024038570893
3.386388240515287 0.360107243159914 -0.059442896325388
3.343796269325452 0.343778321365266 0.900690276956772
3.343287159889861 0.345495119204861 0.653330000169289
3.342195817990687 0.346561487784484 0.532190050066865
3.334879481925743 0.346391151945689 0.411674642022588
3.341071790834115 0.348213221253158 0.293889164545103
3.345142924862570 0.349817924733523 0.176267500626235
3.375016835476762 0.353537489642186 0.059233467448140
3.387624618337239 0.348284348359106 -0.059442896325388
3.348950326067841 0.333089071810106 0.776980941703710
3.354240530432334 0.334797713936210 0.655238090123055
3.339454099607743 0.334499175785610 0.531564312206705
3.347919337365651 0.335937298407502 0.413137074143450
3.362090574107980 0.338544719159815 0.295632279400056
3.336407937904769 0.337135089790122 0.175744141063805
3.380209407429809 0.342157103172383 0.059303277073889
3.376880248491380 0.335271805678420 -0.059233467448140
3.336499516932223 0.319505267131965 0.898102086505747
3.353972288149091 0.321769227014036 0.777880745921085
3.351480325498663 0.322710850595043 0.654474854141549
3.336668942072202 0.322460232093246 0.530938574346544
3.353023287581353 0.324631426881984 0.413624551517071
3.361268783275054 0.326614077737680 0.295457967914561
3.357499815084291 0.326839384809580 0.176790860188664
3.397304922318962 0.331911416834194 0.059582515576886
3.453672384671024 0.330725813761004 -0.060559850337374
3.333800718627216 0.306920032408095 0.897066810325337
3.358955981596164 0.310418376429925 0.778780550138461
3.354541239082885 0.311191381947988 0.654856472132302
3.345696004038139 0.310959803146741 0.532190050066865
3.362042071583200 0.313662809892936 0.414599506264312
3.344535011427340 0.313207145990806 0.293889164545103
3.362597294204397 0.315490673060868 0.177000204013636
3.382515721910975 0.318550643310248 0.059303277073889
3.346345931158597 0.296887401642952 0.900172638866567
3.367783422215636 0.299381758113889 0.780580158573212
3.355607062707502 0.299479951939965 0.654856472132302
3.350643777890049 0.300215938654841 0.532815787927026
3.349276490904029 0.300682691575491 0.412893335456640
3.365451395761333 0.303319069866737 0.295632279400056
3.397493881689382 0.306804773467556 0.178779626525896
3.383607063721560 0.306741519299013 0.059303277073889
3.351261413201041 0.284947774594648 0.901207915046977
3.362982913742606 0.287126843339317 0.779230452247148
3.360544157826391 0.288100263157951 0.655619708113808
3.373371024325866 0.289793013943276 0.536257346157911
3.352283412754482 0.289160299037318 0.413137074143450
3.402218927029648 0.294664092990201 0.298769886138972
3.362728092654031 0.291835134276243 0.176895532101150
3.388641470670237 0.295275836853634 0.059373086699639
3.359889660503976 0.274462164160927 0.903278467407797
3.373675899470579 0.276181087491897 0.781479962790587
3.383052521553388 0.278137547215852 0.659817506012092
3.380219497553858 0.279092559006641 0.537195952948153
3.363164006145413 0.278275341421393 0.414355767577501
3.379400210703539 0.280806503148402 0.296678148313028
3.365716671080211 0.280260981572309 0.177000204013636
3.407586195109352 0.284945183277844 0.059687230015510
3.355095041656205 0.261695029133896 0.901725553137182
3.361527116898920 0.265148260890909 0.534067263647348
3.377967116550027 0.267631505869296 0.416061938385174
3.366674459374428 0.268510730465352 0.177000204013636
3.412546699211127 0.273368106984991 0.059757039641259
3.383294999715226 0.253203590422819 0.783279571225338
3.380996373429583 0.254218394319650 0.659054270030586
3.368297190717628 0.254445973835421 0.535005870437590
3.374921892453332 0.255538817392145 0.415574461011553
3.375318290501114 0.256753825899873 0.296155213856542
3.377548621503000 0.257516395125513 0.177523563576065
3.411486286355469 0.261301711858371 0.059722134828384
3.384158232995540 0.241392144341022 0.783279571225338
3.368155553230913 0.241432392069762 0.656382944095314
3.357385378130885 0.241249368808857 0.533128656857107
3.373813390772907 0.243613618943244 0.415330722324743
3.384142626496019 0.245546941834332 0.296852459798524
3.384402935347173 0.246159636409676 0.177837579313523
3.408388863277037 0.249100294634493 0.059652325202635
3.373314590141841 0.228786564242756 0.780580158573212
3.377874482228208 0.231464988720078 0.536257346157911
3.364741084485903 0.231155060296470 0.414112028890691
3.386966784484735 0.233869831183348 0.297026771284019
3.381256592637149 0.234068504299578 0.177628235488551
3.419211984517208 0.237895256448469 0.059826849267008
3.395228084569116 0.219559551259328 0.661343977975104
3.374719437402070 0.219416268797500 0.535631608297750
3.373451016139159 0.219925072977231 0.415086983637932
3.395715002131420 0.222566919973347 0.297724017226000
3.380060084465217 0.222133315331674 0.177523563576065
3.420021562921308 0.225958529956451 0.059826849267008
3.390354740998517 0.206769043425642 0.784179375442713
3.399856645269319 0.208539753631453 0.662107213956611
3.375464783165598 0.207634962858353 0.535631608297750
3.388030897914477 0.209595088644998 0.416793154445604
3.396434389841486 0.211305099486278 0.297724017226000
3.394731803646341 0.211793967336921 0.178256266963467
3.420752063969657 0.214616087360920 0.059826849267008
3.389110316141211 0.194821399370781 0.783729473334026
3.396643913411697 0.196444058905687 0.661343977975104
3.380113122619474 0.196079924998215 0.536257346157911
3.396668761854893 0.198229990618433 0.417768109192846
3.383228538856745 0.198630633618795 0.296503836827533
3.407413252471949 0.200647289168693 0.178884298438382
3.427468962278343 0.203028865658110 0.059931563705632
3.411174697397968 0.184145514958680 0.788678396529591
3.385546760116306 0.183947286526429 0.659054270030586
3.396556565636421 0.185140050134054 0.538760297598555
3.393375795923057 0.186154725838768 0.417280631819225
3.415731036595854 0.188577021865952 0.299292820595458
3.428034912831318 0.189856433465480 0.179931017563241
3.416177202887920 0.190395864136827 0.059722134828384
3.394280348149122 0.171352896029929 0.784629277551401
3.401127755876228 0.173483984737682 0.539386035458716
3.402747258109515 0.176543908318266 0.178570282700924
3.402464967230578 0.160456174687160 0.662107213956611
3.395793153666148 0.161329551150518 0.538447428668475
3.408500874868957 0.162529521140138 0.418986802626897
3.416993001038598 0.164129943621661 0.299292820595458
3.418695421092972 0.149263465601933 0.665160157882635
3.406229054602879 0.149314809232652 0.540011773318877
3.407064285692408 0.150543015651178 0.418743063940087
3.399932916963156 0.152011629929069 0.178360938875953
3.415248281477463 0.137767579762224 0.664396921901129
3.398810441688201 0.137698668122725 0.538760297598555
3.408077533746170 0.140457373120301 0.298421263167982
3.420349058885318 0.142159092684861 0.179407658000811
3.405898756977935 0.125483882475703 0.662488831947364
3.406026355471799 0.127274430244446 0.418499325253276
3.408547058299818 0.128560106739555 0.298421263167982
3.426811889478601 0.130446901522490 0.179721673738269
3.427308567711596 0.115492075728015 0.543140462619682
3.404465920964324 0.115317202959818 0.418255586566466
3.428887288229396 0.117342706569097 0.300164378022935
3.419282669576030 0.117611499084193 0.179302986088326
3.426315593926995 0.102289207591768 0.666305011854894
3.425734360098307 0.102870294891214 0.542827593689601
3.422705304845450 0.103975175800951 0.420449234747759
3.433258899714976 0.105495325780527 0.300513000993925
3.415661292345313 0.106148025298602 0.179093642263354
3.434486212316632 0.091134881513788 0.667831483817907
3.412217988507296 0.091735927603973 0.540637511179038
3.430968743595277 0.092839285761623 0.421424189495000
3.433589857599428 0.094109648941893 0.300513000993925
3.427973451842758 0.095153210402794 0.179721673738269
3.428895208225837 0.079010053733373 0.666686629845648
3.436215455879891 0.080378842008109 0.544391938340003
3.451117323560260 0.081330087330888 0.423861576363103
3.409521321906478 0.066656748075081 0.662870449938117
3.438147135405664 0.070217935935349 0.300861623964916
3.452516143567124 0.071717063741129 0.180977736688100
3.444593306715654 0.056517395749523 0.545643414060325
3.427783175477152 0.056840006194705 0.420936712121379
3.450323918648960 0.058418508565959 0.301907492877888
3.444757605205122 0.059527062685064 0.180559049038156
3.434901234902877 0.043766113520930 0.544079069409923
3.433923260978994 0.044353083886572 0.421667928181810
3.456491500391838 0.045851328675718 0.302430427334374
3.433063278833359 0.031158349469432 0.543766200479842
3.445967186335972 0.032478437244990 0.423130360302672
3.443024447080890 0.019830616513067 0.545330545130245
3.458719718260780 0.021732062898666 0.302604738819869
3.452950865538081 0.007231853955745 0.546894889780647
3.440154691839024 0.008405900390226 0.422399144242241
3.450804979102134 0.009636490445852 0.301907492877888
3.450089109408265 -0.003010771486596 0.423617837676293
3.456795128528297 -0.001809973862197 0.302430427334374
3.454895454289043 -0.016280931782119 0.547207758710728
3.454027727544276 -0.015071134719706 0.424105315049913
3.474699110650971 -0.013948411122167 0.303999230703832
3.452847155567845 -0.027721829284046 0.546894889780647
3.467733091752311 -0.039341871812495 0.425811485857585
3.462563443467007 -0.038074408012738 0.302953361790860
3.465589762513413 -0.051416831195763 0.425567747170775
3.478346886638933 -0.050391667691892 0.304347853674822
3.461419652769618 -0.063440930395390 0.425080269797154
3.476157728147245 -0.062497242132622 0.304173542189327
3.471100213968448 -0.075739676103052 0.426298963231206
3.483886115365355 -0.074801990004907 0.304870788131308
3.486690339254219 -0.088257470847963 0.428248872725688
3.488362775093918 -0.099876079738637 0.428492611412499
3.470136271323168 -0.111478484001801 0.426298963231206
3.477661334295775 -0.123873495790990 0.427273917978447
3.548616463873935 -0.138805218331328 0.436048510703618