# This PCD file was generated using the MATLAB® pcwrite function
# from Computer Vision Toolbox®.
# .PCD v.7 - Point Cloud Data file format
VERSION .7
FIELDS x y z
SIZE 8 8 8
TYPE F F F
COUNT 1 1 1
WIDTH 560
HEIGHT 1
VIEWPOINT 0 0 0 1 0 0 0
POINTS 560
DATA ascii
2.482537598806701 1.162905587634513 0.336603126485017
2.480431996094229 1.162975248588469 0.239678292556060
2.482980640190331 1.152561239528051 0.336115649111397
2.485185229953784 1.143057493132911 0.335871910424586
2.504778884642156 1.153129037774309 0.241247095925518
2.480128319035484 1.130259592074364 0.334653216990535
2.499725252840874 1.140244386437138 0.240375538498041
2.487676990748957 1.123229230691281 0.335140694364156
2.498243467594214 1.129050178228287 0.239852604041555
2.502454997269547 1.119402216310644 0.336603126485017
2.489440308757477 1.114623485989644 0.238632423643088
2.514140750066777 1.113588899026355 0.435513550672003
2.509976951367471 1.112268685342833 0.337090603858638
2.509707316364774 1.113197447323158 0.240201227012546
2.504371873846351 1.100385194954501 0.335871910424586
2.502249357190158 1.100494829217161 0.239155358099574
2.525285486150245 1.098025379687364 0.436139288532164
2.504557332533856 1.090052223573704 0.335384433050966
2.524341413289371 1.099711032444614 0.240898472954527
2.512585514158710 1.082610181912378 0.433323468161440
2.511992919544357 1.082874707409291 0.335871910424586
2.519017981003545 1.086945946771685 0.240026915527051
2.509268626536967 1.070293769590970 0.432071992441118
2.515757553753791 1.074099618526365 0.335871910424586
2.522796783691343 1.078146311044650 0.240026915527051
2.516443159735446 1.063504818048704 0.432697730301279
2.534118480749188 1.071496123890328 0.337821819919069
2.515535936888214 1.064674133048782 0.238981046614079
2.525791277978473 1.056561378833111 0.433636337091520
2.525025871283905 1.057276983467142 0.336115649111397
2.522912053417810 1.057427103858904 0.239329669585069
2.534572332012256 1.050890913438745 0.434574943881761
2.524850868378180 1.047376638457202 0.335628171737776
2.533764983095623 1.052111253746963 0.240026915527051
2.539357983841007 1.041466609212428 0.533501951072819
2.521959453869648 1.034845192433385 0.431759123511037
2.532163976938941 1.040065317331169 0.336115649111397
2.555849275914733 1.050836681513937 0.241770030382004
2.546615932857758 1.034073498556471 0.534265187054325
2.525377257603852 1.026476383577444 0.431759123511037
2.539456762716053 1.032715684753656 0.336603126485017
2.552120405435526 1.038903917001923 0.241072784440022
2.541102115237045 1.021516500652085 0.532357097100560
2.534442649781076 1.019867211534325 0.432697730301279
2.552253405309856 1.027551932055413 0.337821819919069
2.535403727566674 1.021796776728759 0.239155358099574
2.537355897678089 1.009736547785757 0.530830625137548
2.541834145234731 1.012032583496879 0.433323468161440
2.550292593658891 1.016431803673431 0.337090603858638
2.540805567688501 1.013678635692503 0.239329669585069
2.580227247812223 1.029928341444919 0.145598630267870
2.551824955667446 1.005190581973043 0.533120333082066
2.563729300296862 1.010396748334987 0.436452157462244
2.544592147710280 1.003880900106642 0.335871910424586
2.559153416271770 1.010658038146217 0.240724161469032
2.557801405954939 1.010640184032100 0.144133223493067
2.551659885261780 0.994850617486115 0.532357097100560
2.552518097144044 0.995698473608037 0.433949206021600
2.538835267113694 0.991382222363112 0.334653216990535
2.564521339379706 1.002444125921390 0.240898472954527
2.555733411586714 0.999523268553508 0.143819207755610
2.545660271428151 0.981267773833978 0.629862952162822
2.562443516797847 0.988764662548488 0.533883569063572
2.548606940561206 0.983936652795989 0.432697730301279
2.553390116116064 0.986807572601272 0.336115649111397
2.571721258645287 0.994923919975496 0.241247095925518
2.570382404166388 0.994921751410884 0.144447239230525
2.563636140573149 0.977932216031394 0.633462169032324
2.554874852200994 0.975611836957447 0.531593861119054
2.551855778977422 0.975479757602206 0.432697730301279
2.564235605507091 0.980725080866142 0.337090603858638
2.552850385942239 0.977392255794381 0.239155358099574
2.575532527239505 0.987107363013866 0.144551911143011
2.565210964840338 0.968289303765720 0.633012266923636
2.558264807868476 0.966687715677718 0.531593861119054
2.562804880417735 0.968914460362867 0.433949206021600
2.565786777605414 0.971065600919496 0.336846865171828
2.561836029192323 0.970592847495550 0.239678292556060
2.595941410972043 0.984032366786053 0.145493958355384
2.566749728329016 0.958647321355796 0.632562364814948
2.565301443418396 0.959126907954394 0.532357097100560
2.566171409565683 0.959962698921631 0.433949206021600
2.561724731484463 0.959318747804189 0.335871910424586
2.567074029033016 0.962343835538361 0.239852604041555
2.573011411352659 0.965594145269428 0.144028551580581
2.553628955215571 0.943602807802293 0.628513245836759
2.581522994248540 0.954934352041984 0.535028423035832
2.569506670724840 0.950999240637853 0.433949206021600
2.566919207173556 0.951060489278103 0.336115649111397
2.602174209157365 0.965155854898999 0.242815899294976
2.581983365919697 0.958692401854748 0.144342567318039
2.566058607678605 0.938028553468495 0.630762756380198
2.590371652348492 0.947941411550181 0.536173277008091
2.565226858600081 0.939755201160857 0.432697730301279
2.573951051904714 0.943460819344995 0.336603126485017
2.594304719268650 0.951948672980585 0.241770030382004
2.592979385388386 0.951975885204536 0.144761254967983
2.545555068503060 0.919468569536436 0.725210964377263
2.572982522337409 0.930390965823263 0.631662560597573
2.573358531461289 0.931542783870548 0.531975479109807
2.574225921042510 0.932364968553996 0.433636337091520
2.582827277398934 0.936500291758332 0.337334342545448
2.580756386759762 0.936768831003874 0.240201227012546
2.601753495176975 0.945418381545515 0.145075270705440
2.583392847056227 0.924479896040787 0.633462169032324
2.572737028206955 0.921679844872093 0.531212243128301
2.582720554012957 0.926273802948768 0.434574943881761
2.582181746395369 0.926589239094904 0.336846865171828
2.585723705851593 0.928879172707024 0.240375538498041
2.621789078432909 0.942868480265410 0.146017317917813
2.577254006630263 0.911135123619352 0.732457897640134
2.579255837969719 0.912855811088718 0.631662560597573
2.583340739730862 0.915316384584949 0.532738715091313
2.577917345681068 0.914914323105948 0.335871910424586
2.598337403229290 0.923182851707707 0.241247095925518
2.611891964974058 0.929025696138004 0.145284614530412
2.576614256570282 0.901307895036851 0.731422621459724
2.578747915339395 0.902559435326218 0.630762756380198
2.592078475747848 0.908240887787295 0.533883569063572
2.596580254593536 0.910836051895068 0.435826419602083
2.586714507612101 0.907882366471338 0.336603126485017
2.599664354412954 0.913446855047963 0.241072784440022
2.611350774359812 0.918577323408407 0.145075270705440
2.572597081113697 0.889333355692023 0.729352069098903
2.600298436400822 0.899925839022757 0.635261777467075
2.593377973331068 0.898544576324814 0.533501951072819
2.592278681103289 0.899177322694228 0.434574943881761
2.595493919965265 0.900800118096558 0.337334342545448
2.593426928702224 0.901097184561032 0.240201227012546
2.605109331185444 0.906175544558244 0.144551911143011
2.562736667596448 0.876421569860802 0.725728602467468
2.607111491190953 0.892105439109541 0.636161581684450
2.605785155445778 0.892667805864161 0.535410041026585
2.604744301002126 0.893327290188542 0.436139288532164
2.611765808360130 0.896244884273382 0.339040513353120
2.589019370524861 0.889449572543832 0.239503981070565
2.619745847124355 0.900516785371683 0.145179942617926
2.649098692713999 0.911640688862011 0.048901642837268
2.573252475001912 0.869496457800586 0.727799154828288
2.606517685493243 0.881750548227966 0.635261777467075
2.604259261822183 0.882506455723948 0.435513550672003
2.590440259407938 0.878831794046091 0.335871910424586
2.590221813998412 0.879766027727302 0.239329669585069
2.622873276927443 0.891366679566470 0.145179942617926
2.620081689028416 0.891438306746678 0.048308261018401
2.592611790876952 0.866469578225572 0.732457897640134
2.594794535446447 0.867702557537189 0.631662560597573
2.606368525200850 0.872584563663691 0.534265187054325
2.624028151482434 0.879515561379655 0.438329371042727
2.599138382380227 0.871677695297067 0.336603126485017
2.615942193127827 0.878329178757746 0.241421407411013
2.616502386103157 0.879025447012314 0.144656583055497
2.640235661694207 0.888024499951949 0.048622404334272
2.590266746962371 0.855144481866414 0.730904983369518
2.605208735410777 0.861086015067160 0.633462169032324
2.614990103142898 0.865331640720833 0.535410041026585
2.604731036166443 0.862441213869940 0.434574943881761
2.604049532121126 0.863224318287928 0.336846865171828
2.626556073284599 0.871702788564039 0.242118653352994
2.623345779004246 0.871145674964678 0.144865926880469
2.641421787329471 0.878172076709026 0.048587499521397
2.589562838688501 0.844899115286102 0.729869707189108
2.612052313486150 0.852741225992036 0.634361973249699
2.607725648897349 0.853343751505259 0.434574943881761
2.614742069672428 0.856145038572157 0.337821819919069
2.618373842206022 0.858346279221625 0.241072784440022
2.626521067010757 0.861524780710186 0.144865926880469
2.654122070144319 0.871604441147851 0.048762023585770
2.611029688173598 0.841327056416213 0.735046088091159
2.616867641501693 0.844216577523406 0.634811875358387
2.626719947714826 0.848407426258048 0.536554894998844
2.614595097309921 0.844995173793492 0.435200681741922
2.625269375675811 0.849457150546421 0.338796774666310
2.632726546715159 0.852885389674257 0.242118653352994
2.637112094711271 0.854814705482003 0.145284614530412
2.647638173013436 0.859248136275159 0.048587499521397
2.630792334357038 0.839087034310163 0.637511288010513
2.610816799457520 0.833720037610499 0.532738715091313
2.620999922183173 0.837980154832219 0.435826419602083
2.618618346639793 0.837722504002979 0.337578081232259
2.616565968458815 0.838072868666540 0.240375538498041
2.651344073622422 0.849722368190332 0.145912646005327
2.654281135741509 0.851685457615267 0.048657309147146
2.613010401116677 0.822375079665103 0.734010811910749
2.622553374563360 0.826384704886471 0.634811875358387
2.628689406715066 0.829327017015270 0.535791659017338
2.612062595453807 0.825585464789161 0.336359387798207
2.627073636079277 0.831338693445422 0.241072784440022
2.644773582052553 0.837447702883312 0.145389286442898
2.659144098486830 0.843019413644986 0.048692213960021
2.617425626163421 0.814736182848301 0.734528450000954
2.619697603257697 0.815944941703017 0.633462169032324
2.637047803989240 0.822358839250907 0.536936512989597
2.626643109861248 0.820120299343492 0.435826419602083
2.624259835729582 0.819878865228329 0.337578081232259
2.631717540004601 0.823217242494129 0.241247095925518
2.643723969811942 0.827479519808945 0.145179942617926
2.665741410699822 0.835392719824601 0.048762023585770
2.616560541062253 0.804459258704055 0.733493173820544
2.637430560156918 0.811379584992875 0.637061385901826
2.649283622180212 0.816038469146219 0.538844602943362
2.627602216265812 0.810364449032693 0.435513550672003
2.630899413687703 0.811884199342613 0.338065558605879
2.626960692295050 0.811673142841137 0.240549849983537
2.646596305897699 0.818246159703854 0.145179942617926
2.672461766345033 0.827265108347495 0.048831833211519
2.615655647145958 0.794198315119125 0.732457897640134
2.642111316351802 0.802734794103835 0.637511288010513
2.640846372996473 0.803357503782815 0.536554894998844
2.628664935044650 0.800153126518962 0.435200681741922
2.650807120799073 0.807904252072914 0.340259206787172
2.627872319756330 0.801916873217080 0.240375538498041
2.655166970237443 0.810752655402499 0.145493958355384
2.667683906065694 0.815592818517766 0.048692213960021
2.618548960633233 0.784606123447437 0.732457897640134
2.652363475581436 0.795747177869905 0.639310896445264
2.639874020761077 0.793004699001334 0.535791659017338
2.637117264191759 0.792678406354325 0.436139288532164
2.640305010528582 0.794641613060081 0.338553035979500
2.640193794506259 0.795613327036536 0.241247095925518
2.661805281831808 0.802632661524578 0.145703302180356
2.632250769967312 0.779208501450467 0.735563726181364
2.638308578038814 0.781502604689313 0.635261777467075
2.650154889838860 0.786017993421881 0.537318130980350
2.655018050993256 0.787964551367389 0.438642239972807
2.635451329974823 0.783158557640457 0.337578081232259
2.650593516358005 0.788665294329104 0.241944341867499
2.668419211062036 0.794476188296909 0.145912646005327
2.671396409019304 0.796377857643800 0.048657309147146
2.638663270741364 0.771099250006203 0.736599002361774
2.639150046644116 0.771741481457571 0.634811875358387
2.660419056904406 0.778969149285568 0.538844602943362
2.650169639541333 0.776470347791846 0.437390764252486
2.641978637766657 0.775071968057892 0.338065558605879
2.651418702390383 0.778846658222005 0.241770030382004
2.659679022005220 0.781777385632322 0.145284614530412
2.679915018652291 0.788741882910826 0.048762023585770
2.633914128705613 0.759742271263188 0.734528450000954
2.643700157426688 0.763064841092471 0.635261777467075
2.661235894774485 0.769132710395140 0.538462984952609
2.647037382959783 0.766030422019895 0.436452157462244
2.656108573072317 0.769157975688218 0.339527990726741
2.665602649678075 0.772915877103582 0.242815899294976
2.660338812924573 0.772396390921480 0.145179942617926
2.690333094089112 0.781614017387561 0.048901642837268
2.625532274834657 0.746911790386612 0.731422621459724
2.646347644468096 0.753831956544383 0.635261777467075
2.662016500833619 0.759300067047276 0.538081366961856
2.670721940296018 0.762287240162898 0.439893715693129
2.675955283161442 0.764791242119295 0.341721638908034
2.668284389814799 0.763606478574036 0.242815899294976
2.668912160309477 0.764290120722678 0.145493958355384
2.683433892823937 0.769462286756059 0.048727118772896
2.707985631055742 0.770879040438124 -0.049145976527390
2.637035278493595 0.741733825558963 0.734010811910749
2.658082073575293 0.748154427773337 0.637511288010513
2.658719859627544 0.749335631770346 0.536936512989597
2.667399917984351 0.752284580398358 0.438955108902888
2.653509870855872 0.749367204446201 0.338553035979500
2.672587366507166 0.755762215151801 0.242990210780471
2.669246399948562 0.755823796760370 0.145389286442898
2.681990078289490 0.759937948929580 0.048657309147146
2.712319047415161 0.762909316983025 -0.049180881340265
2.650777352699743 0.735623874532990 0.737116640451979
2.655044375639868 0.737307130964999 0.636161581684450
2.665102301189261 0.741102357405589 0.537699748971103
2.673815773956932 0.744028148727034 0.439580846763049
2.667582959553258 0.743297137996355 0.340015468100361
2.688642805220493 0.750176746358024 0.244210391178938
2.689180777997005 0.751338727899802 0.146331333655271
2.692329792824053 0.752725146684265 0.048796928398645
2.713038699450043 0.752902177097123 -0.049145976527390
2.662899751769188 0.727987414153814 0.739704830903004
2.665247235833666 0.729629146746956 0.637961190119201
2.675374276355652 0.733405456805160 0.539226220934116
2.676396627066552 0.734690257037528 0.439580846763049
2.672203548037057 0.734040782283062 0.340259206787172
2.681769091197150 0.737675235783399 0.243338833751462
2.686268958108027 0.739417356824481 0.146017317917813
2.704709606664026 0.745509047874668 0.048971452463018
2.717708821945317 0.743481001795735 -0.049180881340265
2.654233252547143 0.715670141051484 0.736599002361774
2.694117012048470 0.727433027973978 0.644259819640829
2.683603640789628 0.725599476670970 0.540371074906375
2.669537362622927 0.722296208931786 0.438016502112646
2.682413587375169 0.726785108038810 0.341234161534413
2.676636236609349 0.726222773489676 0.242641587809480
2.690633572351805 0.731028962094799 0.146121989830299
2.707295440860550 0.736063307562157 0.048971452463018
2.704842288388720 0.729822460788849 -0.048901642837268
2.656591906382971 0.706864451405028 0.736599002361774
2.679567086351779 0.713979333382480 0.640210700662640
2.676510614167238 0.714165629308806 0.538462984952609
2.671793345725989 0.713906059374291 0.438016502112646
2.690562106849356 0.719424234866167 0.341965377594844
2.677105170710597 0.716827402424473 0.242467276323985
2.691113843865724 0.721585214803028 0.146017317917813
2.701995922550490 0.725008611387293 0.048831833211519
2.726571274933239 0.725994113025927 -0.049250690966014
2.666517610140377 0.699547799465610 0.738669554722594
2.697121260523289 0.708582878794376 0.643809917532142
2.673291278092364 0.703319961749330 0.537318130980350
2.683820026391116 0.707091751543654 0.439580846763049
2.683443810388870 0.708495416735519 0.242815899294976
2.718718051320266 0.718823947141489 0.147378052780130
2.736825465194942 0.718503284833904 -0.049390310217512
2.676424512794826 0.692170442209889 0.740740107083414
2.682720983827854 0.694298382227208 0.639760798553952
2.685353430847209 0.695979909260488 0.539226220934116
2.690217668374390 0.698242837142373 0.440206584623210
2.689877245686499 0.698655601952723 0.341234161534413
2.687950780411192 0.699156891943235 0.242990210780471
2.700073986597030 0.703316593219284 0.146226661742785
2.718724965311460 0.708681534686024 0.049041262088767
2.741376529026520 0.708968175746774 -0.049425215030387
2.684559700945298 0.683786722969669 0.742293021354029
2.681351641795914 0.683966375601636 0.638860994336577
2.702983855618367 0.690489379806131 0.542279164860140
2.686897367304556 0.687379212096486 0.439267977832968
2.686530407725527 0.687784931857083 0.340502945473982
2.703884691106756 0.693233627313874 0.244210391178938
2.698643546877508 0.692893895026122 0.146017317917813
2.721182162110593 0.699187096007828 0.049041262088767
2.726394961767485 0.694949361524942 -0.049111071714516
2.673696916822939 0.671586246060352 0.738669554722594
2.693172522429964 0.676977905814301 0.641110504880015
2.681618631507219 0.676064389707336 0.438016502112646
2.702388303868140 0.681802299681077 0.342209116281654
2.716655555682653 0.686915053597247 0.146854693217700
2.731360241173551 0.691647651515534 0.049180881340265
2.679891167177095 0.662709661333639 0.739704830903004
2.708760355575881 0.670852160208786 0.644259819640829
2.703927439569858 0.670657066101521 0.541515928878634
2.687912917337325 0.667182983987744 0.438642239972807
2.698972390023282 0.670928372892752 0.341477900221223
2.700924943547448 0.672414899760572 0.243513145236957
2.715160753409650 0.676462286195930 0.146645349392729
2.725997055935017 0.680172776319638 0.049041262088767
2.735062418379184 0.676859519014398 -0.049180881340265
2.683950945430450 0.654276714334683 0.740222468993209
2.707299131571421 0.660469002109078 0.643360015423454
2.698623379029625 0.659350623397522 0.539989456915622
2.724648393318863 0.666717220191616 0.444273880714256
2.709010409184924 0.663391773427797 0.342452854968464
2.710995828280914 0.664881120113749 0.244210391178938
2.733023024705781 0.670789081862031 0.147482724692616
2.732238473216606 0.671607793366071 0.049111071714516
2.752950854454696 0.671097079044641 -0.049460119843261
2.698219203696401 0.648283210380030 0.640660602771328
2.700908501279196 0.649926652890722 0.539989456915622
2.707450058990827 0.653000657424614 0.341965377594844
2.711363491980922 0.654946109356241 0.244036079693443
2.721758486020679 0.657959858214269 0.146750021305215
2.738453263849692 0.663007513246692 0.049180881340265
2.751387761209728 0.660549759459450 -0.049390310217512
2.699733438770592 0.638189941685440 0.743328297534440
2.690983723680499 0.636617527411109 0.638411092227889
2.706981435668011 0.641400056184328 0.540752692897128
2.727314524468044 0.647223380789986 0.443961011784175
2.717438444376465 0.645380685702568 0.342940332342085
2.725263018398723 0.648244027365902 0.245081948606415
2.744641257423456 0.654372017653841 0.049250690966014
2.749784625154934 0.650021540783778 -0.049320500591763
2.712169028512569 0.631640520371185 0.642910113314766
2.713027706466549 0.632838970604347 0.541515928878634
2.702737208633204 0.630936019124508 0.439580846763049
2.735138367632437 0.639506709105447 0.344890241836567
2.737208743978324 0.640998568452571 0.245953506033891
2.737952960907779 0.641676938509607 0.147378052780130
2.764429754393788 0.648900192806960 0.049564834281885
2.748141560633171 0.639512573887371 -0.049250690966014
2.727653703993886 0.625217151462664 0.646059428075580
2.715220198021685 0.623364881129657 0.541515928878634
2.718290551966414 0.625068733131688 0.441770929273612
2.733484947643674 0.629065002075097 0.344402764462947
2.753039443412137 0.636095363320920 0.049320500591763
2.797400532088551 0.641718030434044 -0.150413538242221
2.731720489839342 0.616120809076106 0.646509330184268
2.731792004877089 0.618642641107028 0.343915287089326
2.737730955596420 0.620992315721194 0.245604883062901
2.759895280482798 0.626526287323202 0.148320099992503
2.753293133818189 0.626038217138809 0.049285595778889
2.779850001132662 0.626466254026537 -0.049739358346258
2.766503392283936 0.624473282152765 -0.148634115729960
2.730049563111160 0.605737338239415 0.645609525966893
2.729088375745981 0.606523678947663 0.543424018832400
2.736085326345134 0.609081034817548 0.443961011784175
2.724246894197394 0.606944729075821 0.342696593655275
2.755438406530466 0.614903648218730 0.246999374946863
2.750370043430722 0.614276547733904 0.147692068517587
2.765218941431334 0.618606419700332 0.049460119843261
2.789829019151445 0.618490203232264 -0.049878977597756
2.764766826265303 0.613946645456943 -0.148424771904989
2.728339477742806 0.595373050172558 0.644709721749517
2.736942821168562 0.598251399017283 0.544568872804659
2.736265081674428 0.599104104602323 0.443648142854095
2.739922501826447 0.600406045785168 0.344402764462947
2.743945608738715 0.602291527261232 0.245779194548396
2.748596027755552 0.603815139031510 0.147482724692616
2.767361434145652 0.608950235527019 0.049460119843261
2.770479227417008 0.604062159868622 -0.049495024656136
2.798113288031062 0.611110596118114 -0.150099522504763
2.735912124315099 0.588027264181091 0.646059428075580
2.730512515456001 0.588362636345196 0.442396667133773
2.749556837315851 0.593470664348981 0.345377719210188
2.762191876461370 0.597711670890152 0.148110756167531
2.777078098315862 0.601947756650097 0.049599739094760
2.772363269783401 0.595355476073056 -0.049495024656136
2.803924524668323 0.603157114412311 -0.150308866329735
2.741761352529996 0.579279239679615 0.646959232292956
2.748533183316312 0.581712312601493 0.546095344767671
2.740279633971681 0.580465203937450 0.443648142854095
2.751611685289078 0.583869304257188 0.345377719210188
2.738135525184122 0.582008672619678 0.244907637120919
2.766214992994817 0.588481774917233 0.148215428080017
2.777206589905720 0.591833493633851 0.049564834281885
2.788120588996239 0.588565695098321 -0.049739358346258
2.807966901383690 0.593779124125406 -0.150413538242221
2.755314777561080 0.571601365990019 0.649658644945082
2.742958063965997 0.570036667326034 0.544568872804659
2.769464509716818 0.576049446455294 0.448028307875221
2.757619900033073 0.574590073646967 0.345865196583809
2.755853150775067 0.575225757951431 0.246302129004882
2.768353306392233 0.578339137415278 0.148215428080017
2.777399820395563 0.581240934340905 0.049529929469011
2.794175215911496 0.579154478159222 -0.049809167972007
2.745836355187235 0.559644943051384 0.646959232292956
2.744931152226336 0.560458484019703 0.544568872804659
2.749885013219385 0.562969983159016 0.344646503149757
2.757844273780660 0.565602530778364 0.246302129004882
2.783329232283968 0.572348015280274 0.049599739094760
2.807936707056109 0.571791560917202 -0.050018596849255
2.747677107156371 0.550536344449397 0.646959232292956
2.758323764394100 0.553671114868525 0.546858580749177
2.769350858676448 0.556890260187714 0.447402570015060
2.749790703550360 0.553456251657072 0.344402764462947
2.767517043373827 0.558029321282719 0.246999374946863
2.754508625311598 0.556407031202718 0.147273380867644
2.793052049112855 0.564700139169261 0.049739358346258
2.805895809777761 0.561691929198297 -0.049948787223505
2.761054623975439 0.543198866412629 0.649658644945082
2.771796811803893 0.546317298919373 0.549148288693696
2.763621268999905 0.545207008934188 0.446151094294738
2.796496556744423 0.552706866302779 0.350008754259584
2.769448068552999 0.548365484293023 0.246999374946863
2.772202688272291 0.549413741221828 0.148110756167531
2.802851835674384 0.556504874058204 0.049878977597756
2.796066474556044 0.549580081603253 -0.049739358346258
2.766853909082329 0.533813778408886 0.650558449162458
2.766070246839653 0.534664133254711 0.547621816730684
2.769479813140304 0.535824623228518 0.446776832154899
2.763615927027223 0.536691968571477 0.246302129004882
2.779985102672775 0.540877912289261 0.148424771904989
2.787207303386911 0.542787965184630 0.049564834281885
2.809843319320994 0.541599150222822 -0.049948787223505
2.756346537603664 0.522810343974881 0.545332108786165
2.773274027107017 0.526522525403591 0.447089701084980
2.782828883516409 0.529343042884820 0.347815106078291
2.773301150041167 0.528533858855042 0.246999374946863
2.789703449389077 0.532669023892325 0.148843459554932
2.819576180433263 0.533274145510699 -0.050088406475004
2.760843728596254 0.513187515804324 0.648308938619019
2.769645483084346 0.515823849653219 0.547621816730684
2.786565603516901 0.519981583166429 0.448966914665463
2.778714913138889 0.519018501394317 0.347083890017860
2.806372822395009 0.525198398296537 0.249788358714788
2.791545815443096 0.522927896396683 0.148843459554932
2.820318022909700 0.529336755938521 0.050088406475004
2.813464746314422 0.522460754412063 -0.049948787223505
2.788810956446688 0.509327317895728 0.551056378647461
2.780680023976325 0.508343869825520 0.447715438945141
2.782462302047399 0.509673479811810 0.347327628704670
2.823866268494391 0.518276444790471 0.251182850598751
2.793264557971673 0.513667921644942 0.148843459554932
2.814281954438565 0.518040731580396 0.049948787223505
2.802167024071719 0.501665304419580 0.553346086591980
2.766795744299378 0.496329679040968 0.445212487504497
2.799855176502377 0.502764549190159 0.349277538199153
2.800166475330066 0.503829471621585 0.248916801287312
2.802902856207312 0.505331960276295 0.149262147204876
2.825912637163591 0.509989628114788 0.050123311287878
2.792298741673985 0.489845490739507 0.551056378647461
2.810550102786550 0.496587445678970 0.149576162942333
2.827675616753879 0.500122245137236 0.050123311287878
2.788186918179692 0.479098136419906 0.549911524675202
2.801340967174431 0.482365200432888 0.450218390385784
2.793515658900144 0.481519785741430 0.348058844765101
2.789872388200482 0.481894637401979 0.247696620888845
2.822106374007135 0.488476966838910 0.150099522504763
2.829404142009137 0.490248768327956 0.050123311287878
2.797586480207022 0.470665509280762 0.551437996638214
2.799094274735802 0.472426398992292 0.348546322138722
2.811182398030591 0.475475912360493 0.249439735743798
2.838984259254649 0.481707394086833 0.050262930539377
2.803086707953395 0.461535162678056 0.552201232619721
2.808538258102065 0.463439774731489 0.450844128245945
2.814436146582938 0.464917592689523 0.350252492946394
2.824618807491927 0.467612611274135 0.250485604656770
2.817648024762903 0.466963870365659 0.149680834854819
2.844593780837612 0.472449825153370 0.050332740165126
2.816310325540427 0.453620928845396 0.554490940564239
2.800467055521976 0.451570533791138 0.449279783595543
2.821920867134219 0.456040629378862 0.350983709006825
2.828200631397980 0.458068548363253 0.250659916142265
2.827146911164466 0.458404271399229 0.150099522504763
2.813920506946858 0.443667679419488 0.553727704582733
2.819432362502674 0.445545416480705 0.452095603966267
2.817897258946541 0.446815247554716 0.249614047229293
2.828651489895003 0.449026593932497 0.150099522504763
2.811571347000273 0.433244569719731 0.552964468601227
2.828855555573552 0.436413417575925 0.453347079686589
2.822997862929610 0.436518658381025 0.350739970320014
2.835190827782696 0.439417436328026 0.251008539113255
2.849938065292263 0.442212434966985 0.151146241629622
2.820906125895843 0.424104262788637 0.554490940564239
2.832315009027010 0.426830576062039 0.453659948616670
2.822615946082745 0.425872765659337 0.350496231633204
2.856482207059886 0.432002317316259 0.252751653968209
2.831792207473594 0.428773864683551 0.150099522504763
2.824311782882257 0.414539982191202 0.554872558554992
2.831906010700556 0.416159551011033 0.453347079686589
2.831940915110161 0.417174613884098 0.351471186380445
2.843150566256060 0.420347005455748 0.150622882067192
2.825378320994123 0.406136563400550 0.452095603966267
2.847062670956981 0.409760786328946 0.353177357188117
2.843580797080024 0.410272869620557 0.251357162084246
2.852435814536173 0.412058695052956 0.151041569717136
2.827068017054297 0.395306046894454 0.554872558554992
2.832716796783978 0.396599991303764 0.453034210756509
2.848475657745600 0.399820186584404 0.353177357188117
2.848941494933230 0.400899683483712 0.251705785055237
2.837930781796156 0.387738995659423 0.453659948616670
2.849853936757253 0.389874715157065 0.353177357188117
2.858219172326949 0.392035550538555 0.252403030997218
2.858848105230289 0.380436133261135 0.456788637917474
2.841358990538287 0.378613504639887 0.351958663754066
2.863519901149222 0.382583817141667 0.252751653968209
2.840568530281235 0.367917213238292 0.453659948616670
2.862284483326674 0.371745848410936 0.354396050622169
2.841835495306754 0.357999537200458 0.453659948616670
2.861595241224406 0.361503548188220 0.354152311935359
2.885823625228806 0.365587768822911 0.254494768823162
2.856853989274654 0.349259263423030 0.455850031127233
2.870782348860946 0.351979161211251 0.355127266682600
2.861436739618390 0.351847208622660 0.252228719511723
2.871786948432626 0.340914911833878 0.458040113637796
2.868051157269171 0.341486718813267 0.354639789308979
2.874806115758188 0.332117961228316 0.458352982567876
2.861280051992999 0.331061397419515 0.353664834561738
2.874040936704775 0.321359531434523 0.458040113637796
2.882145450506941 0.323284410411129 0.356102221429841
2.873181284185390 0.311112644646723 0.457727244707716
2.887203327529046 0.313650653135720 0.356589698803462
2.882108274845305 0.301904664194614 0.458978720428037
2.898151671594307 0.304608015126862 0.357808392237513
2.887347715234958 0.293286085650194 0.356345960116651
2.899873844270439 0.283313172735531 0.461481671868681
2.888353884014538 0.283205574462566 0.356345960116651
2.890916537648647 0.273272070424246 0.459917327218279
2.912992143490510 0.275871794004783 0.359270824358375