"X","Y","Z","Intensity"
7.538,4.804,2.064,13.000
7.468,4.721,2.040,33.000
7.454,4.682,2.032,104.000
7.415,4.619,2.017,62.000
7.377,4.559,2.002,68.000
7.333,4.496,1.986,68.000
7.311,4.450,1.976,66.000
7.290,4.403,1.966,66.000
7.267,4.356,1.956,125.000
7.219,4.293,1.939,104.000
7.239,4.271,1.940,136.000
7.264,4.251,1.943,136.000
7.291,4.232,1.946,135.000
7.335,4.223,1.954,136.000
7.356,4.201,1.956,135.000
7.381,4.181,1.958,135.000
7.411,4.167,1.963,132.000
7.443,4.151,1.967,135.000
7.483,4.138,1.974,137.000
7.493,4.109,1.973,133.000
7.523,4.093,1.977,135.000
7.560,4.079,1.983,137.000
7.588,4.060,1.987,135.000
7.636,4.052,1.996,137.000
7.654,4.027,1.997,135.000
7.680,4.006,2.000,135.000
7.718,3.992,2.006,133.000
7.753,3.976,2.012,131.000
7.781,3.956,2.015,132.000
7.808,3.936,2.019,136.000
7.832,3.914,2.021,136.000
7.876,3.901,2.029,137.000
7.897,3.880,2.031,131.000
7.943,3.869,2.040,111.000
7.977,3.849,2.045,37.000
8.022,3.837,2.053,32.000
8.060,3.820,2.059,32.000
8.091,3.800,2.064,32.000
8.129,3.784,2.070,39.000
8.151,3.759,2.072,45.000
8.169,3.733,2.074,55.000
8.179,3.703,2.073,57.000
8.201,3.682,2.075,50.000
8.217,3.655,2.076,50.000
8.227,3.623,2.075,50.000
8.234,3.592,2.074,52.000
8.247,3.564,2.074,52.000
8.264,3.537,2.075,50.000
6.296,2.669,1.579,109.000
6.266,2.630,1.569,114.000
6.251,2.601,1.563,14.000
6.233,2.568,1.556,15.000
6.258,2.552,1.560,110.000
6.243,2.521,1.554,108.000
6.212,2.482,1.545,108.000
6.185,2.446,1.536,108.000
6.175,2.418,1.531,105.000
6.164,2.388,1.526,36.000
6.153,2.361,1.522,36.000
6.125,2.325,1.513,102.000
6.106,2.294,1.506,105.000
6.088,2.263,1.500,105.000
6.078,2.235,1.495,105.000
6.056,2.203,1.488,105.000
6.036,2.172,1.481,102.000
6.018,2.142,1.475,34.000
6.007,2.115,1.470,36.000
5.996,2.088,1.466,102.000
5.983,2.060,1.461,111.000
5.957,2.028,1.453,108.000
5.925,1.994,1.443,102.000
5.917,1.968,1.440,102.000
5.909,1.943,1.436,37.000
5.897,1.916,1.432,34.000
5.878,1.888,1.425,37.000
5.856,1.859,1.419,105.000
5.840,1.832,1.413,105.000
5.821,1.804,1.407,20.000
5.778,1.769,1.395,8.000
5.753,1.739,1.387,12.000
5.752,1.716,1.386,11.000
5.761,1.697,1.387,23.000
5.788,1.683,1.392,5.000
7.217,2.071,1.733,23.000
7.244,2.054,1.738,22.000
7.274,2.035,1.744,23.000
7.311,2.018,1.751,25.000
7.346,2.000,1.758,27.000
7.382,1.981,1.765,28.000
7.406,1.959,1.769,30.000
7.446,1.944,1.777,30.000
7.483,1.925,1.784,31.000
7.520,1.906,1.791,29.000
7.553,1.886,1.797,29.000
7.575,1.865,1.801,54.000
0,0,0,0
5.514,1.318,1.309,22.000
5.520,1.299,1.309,118.000
5.496,1.273,1.302,118.000
5.478,1.249,1.297,118.000
5.455,1.223,1.291,111.000
5.448,1.202,1.288,114.000
5.439,1.180,1.285,116.000
5.430,1.158,1.282,123.000
5.411,1.135,1.276,124.000
5.388,1.111,1.270,126.000
5.377,1.089,1.266,123.000
5.365,1.067,1.263,123.000
5.361,1.047,1.261,124.000
5.349,1.025,1.257,121.000
5.334,1.003,1.253,117.000
5.331,0.983,1.252,13.000
3.281,0.593,0.770,109.000
3.295,0.584,0.772,119.000
3.270,0.568,0.766,40.000
0,0,0,0
3.289,0.547,0.770,5.000
3.293,0.536,0.770,4.000
3.293,0.524,0.770,5.000
3.295,0.513,0.770,5.000
3.289,0.500,0.768,5.000
3.300,0.490,0.770,6.000
3.311,0.481,0.772,26.000
3.309,0.469,0.772,57.000
3.305,0.457,0.770,8.000
3.310,0.446,0.771,6.000
3.314,0.434,0.772,6.000
3.323,0.424,0.773,5.000
3.336,0.414,0.776,5.000
3.322,0.400,0.772,5.000
3.325,0.389,0.773,6.000
3.346,0.380,0.777,8.000
3.343,0.368,0.777,33.000
3.350,0.357,0.778,53.000
0,0,0,0
3.349,0.333,0.777,4.000
3.354,0.322,0.778,5.000
3.359,0.310,0.779,5.000
3.368,0.299,0.781,6.000
3.363,0.287,0.779,6.000
3.374,0.276,0.781,15.000
0,0,0,0
3.383,0.253,0.783,123.000
3.384,0.241,0.783,123.000
3.373,0.229,0.781,60.000
0,0,0,0
3.390,0.207,0.784,4.000
3.389,0.195,0.784,4.000
3.411,0.184,0.789,5.000
3.394,0.171,0.785,6.000
0,0,0,0
4.896,0.212,1.132,121.000
4.895,0.196,1.131,130.000
4.869,0.178,1.125,128.000
4.854,0.160,1.121,129.000
4.842,0.143,1.118,128.000
4.837,0.127,1.117,126.000
4.836,0.110,1.117,128.000
4.826,0.093,1.114,126.000
4.817,0.076,1.112,127.000
4.797,0.058,1.108,129.000
4.798,0.041,1.108,128.000
4.788,0.024,1.105,131.000
4.784,0.008,1.105,132.000
4.765,-0.008,1.100,131.000
4.745,-0.025,1.096,131.000
4.745,-0.041,1.096,132.000
4.737,-0.058,1.094,131.000
4.729,-0.074,1.092,132.000
4.713,-0.090,1.088,132.000
4.705,-0.107,1.087,131.000
4.689,-0.123,1.083,131.000
4.689,-0.138,1.083,131.000
4.684,-0.155,1.082,131.000
4.674,-0.171,1.080,48.000
4.658,-0.186,1.076,16.000
4.649,-0.201,1.074,15.000
4.662,-0.218,1.078,29.000
4.687,-0.237,1.083,129.000
4.653,-0.251,1.076,124.000
4.640,-0.267,1.073,121.000
4.635,-0.283,1.072,121.000
4.634,-0.298,1.072,122.000
4.629,-0.314,1.071,123.000
4.609,-0.328,1.067,124.000
4.604,-0.344,1.066,126.000
4.591,-0.360,1.063,126.000
4.582,-0.375,1.061,126.000
4.584,-0.392,1.062,124.000
4.571,-0.407,1.060,126.000
4.550,-0.421,1.055,126.000
4.543,-0.436,1.054,128.000
4.545,-0.451,1.055,127.000
4.544,-0.467,1.055,127.000
4.519,-0.480,1.049,128.000
4.500,-0.494,1.045,126.000
4.496,-0.510,1.045,127.000
4.494,-0.526,1.045,129.000
4.489,-0.540,1.044,129.000
4.467,-0.553,1.039,128.000
4.462,-0.568,1.038,128.000
4.452,-0.582,1.037,128.000
4.454,-0.598,1.037,127.000
4.444,-0.613,1.036,127.000
4.424,-0.626,1.032,126.000
4.415,-0.640,1.030,126.000
4.412,-0.655,1.030,124.000
4.406,-0.670,1.029,123.000
4.404,-0.685,1.029,124.000
4.390,-0.698,1.026,124.000
4.376,-0.712,1.024,123.000
4.377,-0.728,1.024,124.000
4.371,-0.742,1.024,123.000
4.368,-0.758,1.024,124.000
4.354,-0.771,1.021,126.000
4.346,-0.785,1.019,128.000
4.339,-0.799,1.019,127.000
4.336,-0.815,1.019,128.000
4.330,-0.827,1.018,127.000
4.319,-0.841,1.016,128.000
4.301,-0.854,1.012,128.000
4.302,-0.870,1.013,128.000
4.295,-0.884,1.012,128.000
4.295,-0.900,1.013,128.000
4.273,-0.911,1.009,129.000
4.258,-0.923,1.006,129.000
4.251,-0.937,1.005,129.000
4.256,-0.954,1.007,129.000
4.245,-0.965,1.005,130.000
4.227,-0.977,1.001,130.000
4.210,-0.989,0.998,124.000
4.187,-0.999,0.994,25.000
4.180,-1.013,0.993,26.000
4.182,-1.029,0.994,32.000
4.180,-1.043,0.995,109.000
4.154,-1.052,0.989,35.000
4.156,-1.068,0.991,34.000
4.173,-1.088,0.996,40.000
7.299,-1.930,1.743,37.000
7.275,-1.951,1.739,105.000
7.253,-1.973,1.735,108.000
7.246,-1.999,1.735,108.000
7.239,-2.024,1.735,111.000
7.228,-2.048,1.734,111.000
7.213,-2.071,1.733,111.000
7.187,-2.091,1.728,111.000
7.176,-2.115,1.727,114.000
7.167,-2.139,1.727,116.000
7.154,-2.161,1.725,108.000
7.132,-2.182,1.722,111.000
7.112,-2.204,1.719,108.000
7.108,-2.230,1.720,108.000
7.097,-2.253,1.719,111.000
7.086,-2.276,1.718,108.000
7.066,-2.297,1.715,114.000
7.047,-2.318,1.713,108.000
7.035,-2.342,1.712,111.000
7.035,-2.369,1.714,111.000
7.019,-2.391,1.712,108.000
7.003,-2.413,1.710,108.000
6.984,-2.433,1.707,111.000
6.971,-2.456,1.706,105.000
6.967,-2.482,1.707,111.000
6.956,-2.506,1.707,37.000
0,0,0,0
3.919,-1.442,0.964,38.000
3.912,-1.456,0.964,40.000
3.922,-1.475,0.967,114.000
3.918,-1.489,0.968,131.000
3.899,-1.497,0.964,132.000
3.882,-1.507,0.961,132.000
3.881,-1.522,0.962,132.000
3.883,-1.538,0.964,132.000
3.877,-1.552,0.964,132.000
3.861,-1.561,0.961,131.000
3.848,-1.571,0.960,132.000
3.846,-1.586,0.961,132.000
3.848,-1.603,0.962,132.000
3.839,-1.614,0.961,132.000
3.819,-1.622,0.958,133.000
3.810,-1.633,0.957,132.000
3.808,-1.648,0.958,133.000
3.809,-1.664,0.960,133.000
3.794,-1.673,0.957,130.000
3.763,-1.676,0.951,31.000
3.768,-1.694,0.954,139.000
3.753,-1.703,0.952,136.000
3.740,-1.712,0.950,133.000
3.747,-1.731,0.953,137.000
3.718,-1.734,0.947,135.000
3.724,-1.752,0.950,137.000
3.706,-1.760,0.947,133.000
3.713,-1.779,0.951,136.000
3.720,-1.798,0.954,137.000
3.687,-1.798,0.947,133.000
3.681,-1.811,0.947,135.000
3.678,-1.824,0.948,135.000
3.679,-1.841,0.950,136.000
3.676,-1.855,0.951,136.000
3.645,-1.856,0.944,133.000
3.642,-1.871,0.945,135.000
3.642,-1.887,0.947,136.000
3.633,-1.897,0.946,135.000
3.629,-1.912,0.947,135.000
3.619,-1.923,0.946,136.000
3.606,-1.932,0.944,136.000
3.595,-1.942,0.943,133.000
3.604,-1.963,0.947,137.000
3.592,-1.974,0.946,134.000
3.585,-1.986,0.946,136.000
3.561,-1.989,0.942,134.000
3.579,-2.016,0.948,137.000
3.560,-2.022,0.945,133.000
3.572,-2.045,0.950,137.000
3.543,-2.045,0.944,133.000
3.542,-2.061,0.946,136.000
3.526,-2.066,0.943,133.000
3.540,-2.091,0.949,137.000
3.521,-2.098,0.946,133.000
3.517,-2.112,0.947,136.000
3.493,-2.113,0.943,133.000
3.499,-2.133,0.946,136.000
3.498,-2.150,0.948,136.000
3.496,-2.165,0.949,137.000
3.470,-2.166,0.944,134.000
3.470,-2.184,0.947,137.000
3.458,-2.192,0.945,132.000
3.460,-2.210,0.948,35.000
3.484,-2.242,0.956,129.000
3.461,-2.245,0.952,131.000
3.451,-2.257,0.952,130.000
3.442,-2.268,0.952,133.000
3.448,-2.287,0.955,131.000
3.440,-2.299,0.955,133.000
3.425,-2.307,0.953,132.000
3.417,-2.319,0.953,132.000
3.412,-2.333,0.954,132.000
3.403,-2.345,0.954,132.000
3.402,-2.361,0.956,133.000
3.384,-2.366,0.953,133.000
3.379,-2.380,0.954,132.000
3.374,-2.394,0.955,132.000
3.372,-2.411,0.957,131.000
3.366,-2.425,0.958,132.000
3.352,-2.432,0.956,132.000
3.340,-2.441,0.955,131.000
3.338,-2.458,0.957,132.000
3.335,-2.474,0.959,132.000
3.330,-2.488,0.960,133.000
3.318,-2.497,0.959,132.000
3.310,-2.508,0.959,132.000
3.301,-2.520,0.959,132.000
3.298,-2.537,0.961,133.000
3.301,-2.558,0.964,131.000
3.280,-2.559,0.961,132.000
3.267,-2.567,0.959,129.000
3.265,-2.584,0.961,131.000
3.263,-2.601,0.963,132.000
3.263,-2.619,0.966,131.000
3.247,-2.626,0.964,132.000
3.236,-2.634,0.963,133.000
3.235,-2.653,0.966,132.000
3.232,-2.670,0.968,131.000
3.225,-2.683,0.969,131.000
3.213,-2.692,0.968,131.000
3.200,-2.699,0.966,130.000
3.198,-2.716,0.969,131.000
3.195,-2.734,0.971,130.000
3.187,-2.746,0.971,131.000
3.178,-2.757,0.971,131.000
3.166,-2.765,0.970,131.000
3.162,-2.781,0.972,131.000
3.157,-2.796,0.974,130.000
3.153,-2.812,0.975,129.000
3.140,-2.821,0.974,129.000
3.127,-2.829,0.974,130.000
3.123,-2.845,0.975,129.000
3.116,-2.859,0.976,129.000
3.112,-2.875,0.978,128.000
3.106,-2.890,0.979,121.000
3.090,-2.893,0.977,129.000
3.082,-2.907,0.978,130.000
3.078,-2.923,0.980,130.000
3.077,-2.943,0.983,132.000
3.068,-2.955,0.983,128.000
3.047,-2.955,0.980,129.000
3.043,-2.970,0.982,130.000
3.038,-2.986,0.983,130.000
3.037,-3.007,0.987,131.000
3.016,-3.008,0.983,130.000
3.009,-3.021,0.984,130.000
3.002,-3.036,0.986,131.000
3.000,-3.054,0.988,132.000
2.992,-3.067,0.989,131.000
2.980,-3.076,0.989,130.000
2.967,-3.084,0.988,130.000
2.963,-3.101,0.990,131.000
2.963,-3.123,0.994,133.000
2.957,-3.139,0.996,132.000
2.941,-3.144,0.994,131.000
2.927,-3.151,0.993,132.000
2.924,-3.170,0.996,133.000
2.919,-3.185,0.997,132.000
2.916,-3.204,1.000,132.000
2.904,-3.214,1.000,131.000
2.890,-3.221,0.999,131.000
2.882,-3.234,1.000,131.000
2.891,-3.268,1.007,132.000
2.877,-3.275,1.006,131.000
2.866,-3.285,1.006,131.000
2.854,-3.295,1.006,131.000
2.853,-3.317,1.010,132.000
2.845,-3.331,1.011,130.000
2.837,-3.346,1.013,131.000
2.828,-3.358,1.014,131.000
2.816,-3.368,1.014,131.000
2.808,-3.383,1.015,130.000
2.804,-3.401,1.018,130.000
2.799,-3.420,1.020,129.000
2.785,-3.427,1.019,129.000
2.777,-3.439,1.020,129.000
2.769,-3.454,1.022,128.000
2.762,-3.471,1.024,127.000
2.757,-3.489,1.027,127.000
2.742,-3.496,1.026,127.000
2.730,-3.506,1.026,127.000
2.722,-3.521,1.028,129.000
2.715,-3.537,1.029,128.000
2.710,-3.556,1.032,129.000
2.697,-3.565,1.032,130.000
2.683,-3.571,1.031,127.000
2.678,-3.590,1.034,129.000
2.672,-3.610,1.037,132.000
2.669,-3.632,1.041,132.000
2.655,-3.638,1.040,131.000
2.643,-3.649,1.040,130.000
2.636,-3.666,1.042,131.000
2.631,-3.686,1.046,130.000
2.623,-3.702,1.047,130.000
2.613,-3.716,1.049,131.000
2.603,-3.728,1.050,131.000
2.595,-3.745,1.052,130.000
2.593,-3.770,1.056,130.000
2.584,-3.785,1.058,128.000
2.573,-3.798,1.059,129.000
2.561,-3.810,1.060,129.000
2.552,-3.826,1.062,129.000
2.550,-3.851,1.066,128.000
2.538,-3.863,1.067,127.000
2.527,-3.875,1.068,127.000
2.515,-3.886,1.069,126.000
2.507,-3.904,1.071,124.000
2.499,-3.919,1.073,126.000
2.492,-3.939,1.076,127.000
2.476,-3.945,1.075,127.000
2.462,-3.954,1.075,127.000
2.456,-3.975,1.079,127.000
2.453,-4.001,1.083,129.000
2.441,-4.013,1.084,129.000
2.429,-4.024,1.085,129.000
2.418,-4.038,1.087,24.000
2.407,-4.053,1.088,19.000
4.032,-6.837,1.832,107.000
4.021,-6.875,1.839,63.000
4.150,-7.150,1.908,24.000
4.102,-7.128,1.899,28.000
4.055,-7.103,1.888,25.000
4.004,-7.074,1.877,23.000
3.961,-7.051,1.867,25.000
3.906,-7.012,1.853,26.000
3.859,-6.985,1.842,23.000
3.815,-6.965,1.833,23.000
3.777,-6.945,1.825,26.000
3.728,-6.915,1.814,26.000
3.682,-6.886,1.803,23.000
3.636,-6.862,1.793,12.000
3.594,-6.840,1.784,12.000
3.549,-6.815,1.774,14.000
3.511,-6.791,1.765,14.000
3.464,-6.760,1.754,13.000
3.420,-6.733,1.743,12.000
2.242,-4.454,1.151,3.000
0,0,0,0
2.213,-4.471,1.152,15.000
2.189,-4.461,1.147,21.000
2.182,-4.488,1.152,27.000
2.173,-4.506,1.155,16.000
2.163,-4.524,1.158,17.000
2.169,-4.579,1.170,117.000
2.155,-4.590,1.171,104.000
2.136,-4.592,1.169,108.000
2.130,-4.621,1.175,111.000
2.121,-4.642,1.178,114.000
2.112,-4.667,1.183,111.000
2.098,-4.678,1.184,111.000
2.084,-4.693,1.185,111.000
2.075,-4.714,1.189,105.000
2.068,-4.743,1.194,105.000
2.056,-4.761,1.197,105.000
2.046,-4.784,1.201,48.000
2.031,-4.791,1.201,49.000
2.020,-4.812,1.205,46.000
2.010,-4.837,1.209,102.000
1.998,-4.855,1.212,49.000
1.983,-4.869,1.214,102.000
1.971,-4.887,1.217,102.000
1.959,-4.908,1.220,102.000
1.949,-4.932,1.224,105.000
1.939,-4.958,1.229,102.000
1.925,-4.972,1.231,102.000
1.914,-4.995,1.235,108.000
1.905,-5.022,1.240,102.000
1.893,-5.043,1.244,102.000
1.883,-5.067,1.248,48.000
1.866,-5.080,1.249,45.000
1.851,-5.094,1.251,43.000
1.840,-5.120,1.256,46.000
1.828,-5.141,1.260,49.000
1.819,-5.169,1.265,49.000
1.803,-5.179,1.266,49.000
1.788,-5.196,1.269,102.000
1.776,-5.221,1.273,49.000
1.767,-5.257,1.280,48.000
1.757,-5.289,1.287,49.000
1.741,-5.299,1.288,49.000
1.726,-5.314,1.290,35.000
1.701,-5.305,1.286,16.000
1.693,-5.343,1.294,14.000
1.679,-5.359,1.297,114.000
1.664,-5.376,1.299,104.000
1.646,-5.384,1.300,105.000
1.634,-5.412,1.305,111.000
1.622,-5.440,1.311,114.000
1.608,-5.464,1.315,114.000
1.592,-5.481,1.318,114.000
1.580,-5.509,1.323,118.000
1.566,-5.535,1.328,113.000
1.555,-5.569,1.335,105.000
1.547,-5.618,1.345,49.000
1.532,-5.638,1.349,102.000
1.516,-5.658,1.352,102.000
1.488,-5.632,1.345,34.000
1.464,-5.618,1.340,30.000
1.444,-5.619,1.339,31.000
1.417,-5.593,1.332,31.000
1.392,-5.574,1.326,31.000
1.369,-5.563,1.323,32.000
1.346,-5.555,1.320,30.000
1.319,-5.525,1.311,29.000
1.296,-5.515,1.308,30.000
1.271,-5.501,1.303,30.000
1.248,-5.490,1.300,30.000
1.229,-5.486,1.298,29.000
1.208,-5.479,1.295,30.000
1.182,-5.455,1.289,32.000
1.158,-5.432,1.282,33.000
1.134,-5.425,1.280,32.000
1.111,-5.410,1.275,33.000
1.093,-5.410,1.274,31.000
1.069,-5.387,1.268,32.000
1.046,-5.371,1.263,33.000
1.025,-5.363,1.261,31.000
1.005,-5.353,1.257,31.000
0.985,-5.353,1.257,31.000
0.964,-5.337,1.252,30.000
0.942,-5.323,1.248,31.000
0.923,-5.319,1.246,32.000
0.901,-5.303,1.242,34.000
0.879,-5.292,1.239,31.000
0.856,-5.267,1.232,31.000
0.834,-5.241,1.225,30.000
0.813,-5.230,1.222,31.000
0.792,-5.219,1.219,30.000
0.773,-5.216,1.217,31.000
0.752,-5.190,1.211,31.000
0.731,-5.177,1.207,31.000
0.713,-5.176,1.206,31.000
0.694,-5.174,1.205,31.000
0.674,-5.163,1.202,31.000
0.653,-5.142,1.197,34.000
0.633,-5.125,1.192,33.000
0.614,-5.116,1.190,33.000
0.596,-5.110,1.188,34.000
0.576,-5.093,1.183,34.000
0.556,-5.075,1.179,34.000
0.536,-5.058,1.174,34.000
0.518,-5.056,1.173,33.000
0.499,-5.046,1.171,32.000
0.481,-5.040,1.169,31.000
0.462,-5.026,1.165,34.000
0.443,-5.012,1.162,31.000
0.425,-5.006,1.160,32.000
0.407,-5.000,1.158,33.000
0.389,-4.993,1.156,34.000
0.370,-4.973,1.151,34.000
0.351,-4.963,1.149,34.000
0.335,-4.952,1.146,35.000
0.318,-4.953,1.146,35.000
0.300,-4.943,1.143,36.000
0.281,-4.924,1.139,35.000
0.262,-4.910,1.135,34.000
0.245,-4.903,1.133,36.000
0.228,-4.900,1.132,34.000
0.211,-4.889,1.130,35.000
0.193,-4.868,1.125,34.000
0.176,-4.857,1.122,32.000
0.159,-4.858,1.122,34.000
0.141,-4.850,1.120,32.000
0.124,-4.843,1.118,32.000
0.107,-4.828,1.115,33.000
0.091,-4.814,1.112,34.000
0.074,-4.811,1.111,34.000
0.057,-4.803,1.109,35.000
0.040,-4.800,1.108,35.000
0.022,-4.780,1.104,35.000
0.005,-4.765,1.100,37.000
-0.010,-4.765,1.100,36.000
-0.027,-4.757,1.098,37.000
-0.043,-4.757,1.098,36.000
-0.060,-4.737,1.094,37.000
-0.076,-4.727,1.091,38.000
-0.092,-4.721,1.090,37.000
-0.108,-4.717,1.089,37.000
-0.124,-4.712,1.088,36.000
-0.140,-4.696,1.085,34.000
-0.156,-4.680,1.081,34.000
-0.172,-4.676,1.080,35.000
-0.188,-4.665,1.078,33.000
-0.205,-4.671,1.079,34.000
-0.220,-4.648,1.074,31.000
-0.235,-4.628,1.070,32.000
-0.251,-4.627,1.070,33.000
-0.267,-4.622,1.069,33.000
-0.283,-4.614,1.067,33.000
-0.298,-4.595,1.063,35.000
-0.313,-4.586,1.061,35.000
-0.329,-4.574,1.059,35.000
-0.344,-4.569,1.058,36.000
-0.360,-4.567,1.058,37.000
-0.375,-4.556,1.055,38.000
-0.389,-4.534,1.051,37.000
-0.406,-4.536,1.051,37.000
-0.422,-4.537,1.052,38.000
0,0,0,0
0,0,0,0
-0.351,-3.400,0.789,64.000
-0.364,-3.403,0.790,72.000
-0.375,-3.397,0.789,72.000
-0.387,-3.400,0.790,69.000
-0.397,-3.383,0.786,74.000
-0.408,-3.370,0.784,102.000
-0.419,-3.361,0.782,72.000
-0.431,-3.363,0.783,74.000
-0.443,-3.362,0.783,72.000
-0.452,-3.345,0.779,72.000
-0.462,-3.332,0.777,74.000
-0.473,-3.326,0.776,72.000
-0.487,-3.336,0.778,74.000
-0.498,-3.330,0.777,69.000
-0.507,-3.313,0.774,72.000
-0.516,-3.300,0.771,102.000
-0.527,-3.298,0.771,102.000
-0.539,-3.290,0.770,68.000
-0.551,-3.290,0.770,72.000
-0.560,-3.281,0.768,74.000
-0.570,-3.271,0.767,69.000
-0.580,-3.262,0.765,72.000
-0.592,-3.261,0.765,68.000
-0.605,-3.269,0.768,74.000
-0.613,-3.248,0.763,69.000
-0.623,-3.240,0.762,68.000
-0.634,-3.240,0.762,72.000
-0.645,-3.238,0.762,74.000
-0.656,-3.233,0.762,68.000
-0.666,-3.219,0.759,68.000
-0.677,-3.213,0.758,66.000
-0.688,-3.211,0.758,66.000
-0.699,-3.208,0.758,66.000
-0.709,-3.206,0.758,66.000
-0.719,-3.196,0.756,68.000
-0.729,-3.184,0.754,72.000
-0.740,-3.183,0.754,68.000
-0.751,-3.181,0.754,68.000
-0.762,-3.176,0.754,69.000
-0.771,-3.166,0.752,69.000
-0.782,-3.163,0.752,69.000
-0.791,-3.157,0.751,74.000
-0.802,-3.154,0.751,69.000
-0.814,-3.155,0.752,72.000
-0.822,-3.141,0.750,86.000
-0.831,-3.130,0.748,86.000
-0.840,-3.120,0.746,102.000
-0.853,-3.124,0.748,86.000
-0.865,-3.125,0.749,86.000
-0.873,-3.115,0.747,102.000
-0.879,-3.095,0.743,105.000
-0.891,-3.096,0.744,105.000
-0.902,-3.092,0.744,105.000
-0.913,-3.087,0.743,86.000
-0.921,-3.077,0.741,102.000
-0.928,-3.062,0.739,102.000
-0.940,-3.063,0.740,102.000
-0.955,-3.070,0.742,86.000
-0.966,-3.069,0.743,105.000
-0.970,-3.047,0.738,108.000
-0.977,-3.033,0.736,105.000
-0.988,-3.033,0.736,108.000
-1.000,-3.033,0.737,105.000
-1.011,-3.030,0.737,108.000
-1.018,-3.017,0.735,102.000
-1.026,-3.006,0.733,102.000
-1.037,-3.002,0.733,102.000
-1.050,-3.008,0.736,105.000
-1.060,-3.003,0.735,102.000
-1.067,-2.988,0.732,102.000
-1.076,-2.980,0.732,102.000
-1.086,-2.977,0.732,102.000
-1.098,-2.978,0.733,105.000
-1.110,-2.978,0.734,108.000
-1.117,-2.965,0.732,102.000
-1.122,-2.949,0.728,108.000
-1.132,-2.943,0.728,86.000
-1.150,-2.959,0.733,39.000
-1.197,-3.049,0.756,26.000
-1.231,-3.107,0.772,29.000
-1.273,-3.179,0.790,28.000
-1.316,-3.250,0.809,27.000
-1.365,-3.337,0.832,26.000
-1.415,-3.428,0.856,23.000
-1.460,-3.502,0.876,26.000
-1.510,-3.589,0.899,25.000
-1.580,-3.718,0.933,27.000
-1.626,-3.792,0.952,121.000
-1.641,-3.791,0.954,134.000
-1.644,-3.762,0.948,132.000
-1.654,-3.749,0.946,131.000
-1.669,-3.747,0.947,133.000
-1.682,-3.741,0.947,132.000
-1.698,-3.739,0.948,133.000
-1.706,-3.722,0.945,131.000
-1.716,-3.711,0.944,129.000
-1.730,-3.709,0.945,130.000
-1.746,-3.710,0.947,130.000
-1.759,-3.704,0.947,130.000
-1.770,-3.692,0.945,132.000
-1.778,-3.677,0.943,130.000
-1.793,-3.676,0.944,132.000
-1.808,-3.674,0.945,133.000
-1.820,-3.667,0.945,132.000
-1.827,-3.649,0.942,130.000
-1.838,-3.639,0.941,130.000
-1.855,-3.641,0.943,132.000
-1.870,-3.638,0.944,132.000
-1.882,-3.630,0.944,130.000
-1.890,-3.619,0.943,131.000
-1.898,-3.603,0.940,130.000
-1.914,-3.604,0.942,129.000
-1.930,-3.602,0.943,131.000
-1.941,-3.592,0.943,132.000
-1.953,-3.583,0.942,130.000
-1.964,-3.575,0.942,131.000
-1.976,-3.568,0.942,131.000
-1.988,-3.559,0.941,130.000
-2.005,-3.561,0.943,131.000
-2.012,-3.543,0.941,131.000
-2.023,-3.533,0.940,131.000
-2.038,-3.533,0.942,131.000
-2.052,-3.530,0.943,132.000
-2.065,-3.522,0.943,132.000
-2.073,-3.508,0.941,132.000
-2.083,-3.498,0.940,131.000
-2.098,-3.496,0.941,130.000
-2.114,-3.493,0.943,131.000
-2.128,-3.489,0.943,131.000
-2.132,-3.470,0.940,130.000
-2.145,-3.464,0.941,132.000
-2.156,-3.455,0.940,130.000
-2.174,-3.456,0.943,133.000
-2.187,-3.452,0.943,132.000
-2.190,-3.429,0.939,130.000
-2.206,-3.426,0.941,132.000
-2.220,-3.422,0.942,132.000
-2.236,-3.421,0.943,132.000
-2.249,-3.414,0.944,130.000
-2.257,-3.402,0.943,132.000
-2.264,-3.388,0.941,132.000
-2.281,-3.386,0.943,132.000
-2.295,-3.381,0.943,132.000
-2.309,-3.377,0.944,132.000
-2.320,-3.369,0.944,132.000
-2.328,-3.354,0.943,131.000
-2.344,-3.352,0.944,133.000
-2.357,-3.348,0.945,135.000
-2.373,-3.346,0.947,133.000
-2.380,-3.331,0.945,135.000
-2.390,-3.320,0.944,135.000
-2.406,-3.318,0.946,135.000
-2.420,-3.312,0.947,133.000
-2.434,-3.307,0.948,133.000
-2.443,-3.295,0.947,133.000
-2.452,-3.284,0.946,133.000
-2.466,-3.278,0.947,133.000
-2.480,-3.273,0.948,133.000
-2.496,-3.270,0.950,133.000
-2.505,-3.258,0.949,135.000
-2.514,-3.247,0.948,133.000
-2.530,-3.244,0.950,133.000
-2.541,-3.235,0.950,133.000
-2.562,-3.238,0.953,133.000
-2.566,-3.220,0.951,133.000
-2.574,-3.209,0.950,132.000
-2.590,-3.206,0.952,135.000
-2.606,-3.203,0.953,133.000
-2.627,-3.206,0.957,136.000
-2.621,-3.176,0.951,131.000
-2.629,-3.164,0.950,124.000
0,0,0,0
0,0,0,0
-5.560,-6.551,1.984,0.000
-5.580,-6.528,1.983,0.000
-5.609,-6.516,1.985,0.000
-5.627,-6.491,1.983,0.000
-5.654,-6.477,1.985,0.000
-5.669,-6.448,1.982,0.000
-5.702,-6.440,1.986,0.000
-5.724,-6.420,1.986,0.000
-5.757,-6.412,1.989,0.000
-5.972,-6.604,2.056,2.000
-5.997,-6.586,2.057,3.000
-6.023,-6.568,2.057,3.000
-6.044,-6.543,2.057,3.000
-6.083,-6.539,2.062,2.000
-6.107,-6.522,2.063,2.000
-6.134,-6.505,2.064,2.000
-6.148,-6.476,2.061,0.000
-6.116,-6.398,2.043,0.000
-6.066,-6.301,2.019,2.000
-6.093,-6.285,2.021,2.000
-6.123,-6.272,2.024,1.000
-6.145,-6.251,2.024,1.000
-21.294,-21.511,6.988,5.000
-21.369,-21.436,6.988,5.000
-21.444,-21.361,6.988,5.000
-21.490,-21.259,6.979,5.000
-21.589,-21.215,6.988,5.000
-21.662,-21.140,6.988,5.000
-5.463,-5.294,1.756,0.000
-5.431,-5.227,1.740,0.000
-5.416,-5.175,1.729,0.000
-5.338,-5.065,1.699,0.000
-5.284,-4.980,1.676,0.000
-5.259,-4.921,1.663,1.000
-5.279,-4.906,1.664,1.000
-5.299,-4.890,1.665,1.000
-5.309,-4.865,1.662,0.000
-5.334,-4.854,1.665,0.000
-5.390,-4.871,1.677,0.000
-22.331,-20.037,6.927,5.000
-22.454,-20.005,6.943,5.000
-22.433,-19.847,6.915,5.000
-22.478,-19.761,6.910,5.000
-22.582,-19.713,6.920,5.000
-22.577,-19.570,6.898,5.000
-22.645,-19.491,6.898,5.000
-22.716,-19.408,6.898,5.000
-22.784,-19.329,6.898,5.000
-22.851,-19.249,6.898,5.000
-4.670,-3.906,1.405,0.000
-4.638,-3.853,1.392,0.000
-4.606,-3.800,1.379,0.000
-4.570,-3.745,1.364,0.000
-4.520,-3.677,1.345,0.000
-4.526,-3.654,1.343,0.000
-4.494,-3.601,1.329,0.000
-4.453,-3.543,1.314,0.000
-4.463,-3.526,1.313,2.000
-4.476,-3.511,1.313,3.000
-4.506,-3.509,1.319,3.000
-4.524,-3.500,1.320,1.000
-4.544,-3.490,1.323,1.000
-4.557,-3.475,1.323,1.000
-23.665,-17.918,6.853,5.000
-23.706,-17.812,6.846,5.000
-23.809,-17.759,6.857,5.000
-23.830,-17.646,6.846,5.000
-23.916,-17.581,6.853,5.000
-23.953,-17.492,6.848,5.000
-23.995,-17.395,6.842,5.000
-24.061,-17.302,6.842,5.000
-24.115,-17.214,6.840,5.000
-24.178,-17.138,6.842,5.000
-24.238,-17.054,6.842,5.000
-24.288,-16.962,6.839,5.000
-24.357,-16.884,6.842,5.000
-4.148,-2.854,1.163,0.000
-4.118,-2.812,1.151,3.000
-4.107,-2.784,1.145,5.000
-4.092,-2.753,1.139,23.000
-4.118,-2.750,1.143,29.000
-4.131,-2.738,1.144,34.000
-4.138,-2.723,1.144,20.000
0,0,0,0
-4.197,-2.719,1.154,0.000
-4.213,-2.709,1.156,1.000
-4.224,-2.695,1.157,0.000
-4.258,-2.696,1.163,0.000
-2.797,-1.758,0.763,6.000
0,0,0,0
-2.796,-1.730,0.759,35.000
-2.782,-1.708,0.754,36.000
-2.764,-1.684,0.747,43.000
-2.753,-1.664,0.743,46.000
-2.746,-1.647,0.739,45.000
-2.735,-1.627,0.735,46.000
-2.720,-1.606,0.729,46.000
-2.699,-1.580,0.722,44.000
-2.694,-1.565,0.719,42.000
-2.690,-1.550,0.717,42.000
-2.681,-1.533,0.713,42.000
-2.670,-1.514,0.709,42.000
-2.651,-1.491,0.702,45.000
-2.643,-1.475,0.699,45.000
-2.641,-1.462,0.697,46.000
-2.633,-1.445,0.693,45.000
-2.610,-1.421,0.686,47.000
-2.598,-1.402,0.682,46.000
-2.592,-1.388,0.679,43.000
-2.583,-1.372,0.675,44.000
-2.582,-1.359,0.674,53.000
-2.566,-1.339,0.668,50.000
-2.556,-1.323,0.665,49.000
-2.551,-1.309,0.662,51.000
-2.548,-1.297,0.660,51.000
-2.532,-1.277,0.655,53.000
-2.518,-1.260,0.650,53.000
-2.505,-1.243,0.646,52.000
-2.499,-1.228,0.643,57.000
-2.500,-1.218,0.642,55.000
-2.490,-1.202,0.638,53.000
-2.477,-1.185,0.634,53.000
-2.463,-1.169,0.629,53.000
-2.464,-1.158,0.629,53.000
-2.450,-1.142,0.624,52.000
-2.450,-1.132,0.623,50.000
-2.433,-1.113,0.618,52.000
-2.421,-1.097,0.614,55.000
-2.420,-1.086,0.612,53.000
-2.416,-1.075,0.611,54.000
-2.411,-1.063,0.608,55.000
-2.395,-1.046,0.603,57.000
-2.384,-1.031,0.600,57.000
-2.381,-1.020,0.598,56.000
-2.379,-1.009,0.597,54.000
-2.375,-0.998,0.595,28.000
-2.373,-0.987,0.593,12.000
0,0,0,0
-3.988,-1.627,0.994,1.000
-4.001,-1.616,0.996,1.000
-4.017,-1.607,0.999,1.000
-4.024,-1.593,0.999,1.000
-4.054,-1.588,1.005,1.000
-4.070,-1.578,1.008,1.000
-4.086,-1.569,1.010,1.000
-4.101,-1.558,1.013,1.000
-4.130,-1.552,1.019,1.000
0,0,0,0
-2.270,-0.835,0.558,6.000
-2.256,-0.821,0.554,26.000
-2.264,-0.815,0.556,50.000
-2.254,-0.803,0.552,61.000
-2.237,-0.788,0.548,59.000
-2.236,-0.779,0.547,57.000
-2.242,-0.773,0.548,59.000
-2.234,-0.761,0.545,58.000
-2.222,-0.748,0.541,57.000
-2.213,-0.736,0.539,55.000
-2.205,-0.725,0.536,57.000
-2.211,-0.718,0.537,56.000
-2.204,-0.708,0.534,59.000
-2.201,-0.699,0.533,59.000
-2.185,-0.685,0.529,59.000
-2.187,-0.678,0.529,60.000
-2.186,-0.669,0.528,59.000
-2.184,-0.661,0.527,60.000
-2.168,-0.648,0.522,62.000
-2.155,-0.636,0.519,62.000
-2.150,-0.626,0.517,62.000
-2.150,-0.618,0.516,63.000
-2.151,-0.609,0.516,62.000
-2.128,-0.595,0.510,63.000
-2.123,-0.586,0.508,63.000
-2.123,-0.578,0.508,60.000
-2.117,-0.568,0.506,62.000
-2.118,-0.560,0.506,63.000
-2.102,-0.549,0.502,62.000
-2.095,-0.539,0.499,63.000
-2.095,-0.531,0.499,60.000
-2.093,-0.523,0.498,61.000
-2.091,-0.515,0.497,62.000
-2.081,-0.505,0.494,62.000
-2.068,-0.494,0.491,59.000
-2.070,-0.487,0.491,59.000
-2.071,-0.480,0.491,61.000
-2.069,-0.472,0.490,60.000
-2.059,-0.462,0.487,61.000
-2.050,-0.452,0.485,62.000
-2.049,-0.445,0.484,63.000
-2.053,-0.438,0.485,62.000
-2.045,-0.429,0.482,65.000
-2.036,-0.420,0.480,62.000
-2.025,-0.410,0.477,66.000
-2.026,-0.403,0.477,66.000
-2.031,-0.397,0.478,66.000
-2.021,-0.387,0.475,66.000
-2.007,-0.377,0.471,66.000
-1.993,-0.368,0.468,66.000
-2.002,-0.362,0.470,68.000
-1.998,-0.354,0.468,60.000
-1.999,-0.348,0.468,46.000
-1.988,-0.339,0.466,24.000
-1.976,-0.330,0.462,11.000
-1.989,-0.325,0.465,7.000
-1.988,-0.317,0.465,6.000
-1.995,-0.311,0.466,3.000
-1.982,-0.302,0.463,2.000
-1.947,-0.290,0.454,1.000
-1.959,-0.285,0.457,1.000
0,0,0,0
0,0,0,0
0,0,0,0
0,0,0,0
0,0,0,0
0,0,0,0
0,0,0,0
0,0,0,0
0,0,0,0
0,0,0,0
0,0,0,0
0,0,0,0
0,0,0,0
0,0,0,0
0,0,0,0
0,0,0,0
0,0,0,0
0,0,0,0
0,0,0,0
0,0,0,0
0,0,0,0
0,0,0,0
0,0,0,0
0,0,0,0
0,0,0,0
0,0,0,0
0,0,0,0
0,0,0,0
0,0,0,0
0,0,0,0
0,0,0,0
0,0,0,0
0,0,0,0
0,0,0,0
0,0,0,0
0,0,0,0
0,0,0,0
0,0,0,0
0,0,0,0
0,0,0,0
0,0,0,0
0,0,0,0
0,0,0,0
0,0,0,0
0,0,0,0
0,0,0,0
0,0,0,0
0,0,0,0
0,0,0,0
0,0,0,0
0,0,0,0
0,0,0,0
0,0,0,0
0,0,0,0
0,0,0,0
0,0,0,0
0,0,0,0
0,0,0,0
0,0,0,0
0,0,0,0
0,0,0,0
0,0,0,0
0,0,0,0
0,0,0,0
0,0,0,0
0,0,0,0
0,0,0,0
0,0,0,0
0,0,0,0
0,0,0,0
0,0,0,0
0,0,0,0
0,0,0,0
0,0,0,0
0,0,0,0
0,0,0,0
0,0,0,0
0,0,0,0
0,0,0,0
0,0,0,0
0,0,0,0
0,0,0,0
0,0,0,0
0,0,0,0
0,0,0,0
0,0,0,0
0,0,0,0
0,0,0,0
0,0,0,0
0,0,0,0
0,0,0,0
0,0,0,0
0,0,0,0
0,0,0,0
0,0,0,0
0,0,0,0
0,0,0,0
0,0,0,0
0,0,0,0
0,0,0,0
0,0,0,0
0,0,0,0
0,0,0,0
0,0,0,0
0,0,0,0
0,0,0,0
0,0,0,0
0,0,0,0
0,0,0,0
0,0,0,0
0,0,0,0
0,0,0,0
0,0,0,0
0,0,0,0
0,0,0,0
0,0,0,0
-0.531,0.142,0.127,10.000
0,0,0,0
0,0,0,0
0,0,0,0
0,0,0,0
0,0,0,0
0,0,0,0
0,0,0,0
0,0,0,0
0,0,0,0
0,0,0,0
0,0,0,0
0,0,0,0
0,0,0,0
0,0,0,0
0,0,0,0
0,0,0,0
0,0,0,0
0,0,0,0
0,0,0,0
0,0,0,0
0,0,0,0
0,0,0,0
0,0,0,0
0,0,0,0
0,0,0,0
0,0,0,0
0,0,0,0
0,0,0,0
0,0,0,0
0,0,0,0
0,0,0,0
0,0,0,0
0,0,0,0
0,0,0,0
0,0,0,0
0,0,0,0
0,0,0,0
0,0,0,0
0,0,0,0
0,0,0,0
0,0,0,0
0,0,0,0
-1.965,0.856,0.495,1.000
-1.967,0.866,0.496,4.000
-1.959,0.870,0.495,8.000
-1.936,0.868,0.490,13.000
-1.923,0.870,0.487,25.000
-1.914,0.874,0.486,37.000
-1.915,0.882,0.487,55.000
-1.916,0.890,0.488,66.000
-1.902,0.892,0.485,68.000
-1.901,0.900,0.485,74.000
-1.901,0.908,0.486,80.000
-1.901,0.916,0.487,79.000
-1.898,0.923,0.487,74.000
-1.884,0.924,0.485,74.000
-1.874,0.927,0.483,71.000
-1.878,0.937,0.485,72.000
-1.880,0.947,0.486,77.000
-1.878,0.954,0.486,72.000
-1.870,0.958,0.485,77.000
-1.865,0.963,0.485,69.000
-1.925,1.003,0.501,86.000
0,0,0,0
0,0,0,0
-7.626,4.075,1.996,0.000
-7.607,4.099,1.995,0.000
-7.578,4.118,1.991,1.000
-7.593,4.161,1.999,1.000
-7.568,4.181,1.996,1.000
-7.538,4.199,1.992,1.000
-7.524,4.226,1.992,1.000
-7.516,4.254,1.994,1.000
-7.498,4.279,1.993,2.000
-7.481,4.304,1.993,2.000
-7.456,4.324,1.990,2.000
-7.451,4.356,1.993,2.000
-7.453,4.392,1.997,2.000
-7.424,4.410,1.994,2.000
-7.427,4.447,1.998,2.000
-7.391,4.460,1.993,2.000
-7.381,4.489,1.994,2.000
-7.367,4.516,1.995,2.000
-7.357,4.546,1.997,2.000
-7.342,4.571,1.997,2.000
-7.317,4.592,1.994,2.000
-7.304,4.617,1.995,2.000
-7.289,4.644,1.995,2.000
-7.293,4.682,2.001,2.000
-7.265,4.700,1.998,2.000
-7.243,4.722,1.996,2.000
-7.222,4.744,1.995,2.000
-7.220,4.775,1.998,2.000
-7.208,4.804,2.000,2.000
-7.186,4.829,1.999,2.000
-7.179,4.861,2.002,2.000
-7.150,4.876,1.998,2.000
-7.152,4.914,2.003,2.000
-7.144,4.943,2.006,1.000
-7.124,4.966,2.005,1.000
-7.101,4.989,2.003,1.000
-7.078,5.010,2.002,0.000
-7.073,5.044,2.006,1.000
-7.064,5.074,2.008,1.000
-7.053,5.102,2.010,0.000
-7.035,5.127,2.010,1.000
-7.012,5.149,2.008,0.000
-7.008,5.184,2.012,1.000
-6.985,5.205,2.011,1.000
-6.965,5.228,2.011,0.000
-6.949,5.250,2.011,0.000
-6.943,5.283,2.014,0.000
-6.922,5.308,2.014,0.000
-6.911,5.338,2.016,0.000
-6.892,5.362,2.016,0.000
-6.875,5.387,2.016,0.000
-6.857,5.410,2.016,0.000
-6.855,5.447,2.021,0.000
-6.837,5.473,2.022,0.000
-6.824,5.502,2.024,0.000
-6.797,5.520,2.021,0.000
-6.777,5.543,2.021,0.000
-6.758,5.563,2.021,0.000
-6.760,5.604,2.027,0.000
-6.731,5.620,2.025,0.000
-6.715,5.646,2.025,0.000
-6.696,5.672,2.026,0.000
-6.680,5.699,2.027,0.000
-6.657,5.720,2.026,0.000
-6.658,5.761,2.033,0.000
-6.632,5.779,2.031,0.000
-6.604,5.796,2.029,0.000
-6.605,5.836,2.035,0.000
-6.597,5.869,2.039,0.000
-6.578,5.893,2.039,0.000
-6.566,5.924,2.042,0.000
-6.533,5.937,2.038,0.000
-6.517,5.963,2.039,0.000
-6.504,5.992,2.042,0.000
-6.489,6.020,2.043,0.000
-6.475,6.049,2.046,0.000
-7.563,7.114,2.397,0.000
-7.544,7.142,2.398,1.000
-7.541,7.188,2.405,1.000
-6.405,6.149,2.050,0.000
-6.369,6.157,2.045,0.000
-6.347,6.181,2.045,0.000
-6.331,6.208,2.047,0.000
-6.398,6.318,2.076,1.000
-6.360,6.325,2.071,4.000
-6.241,6.249,2.039,2.000
-6.216,6.268,2.038,5.000
-6.198,6.294,2.039,4.000
-6.186,6.325,2.043,5.000
-6.186,6.368,2.050,2.000
-6.167,6.393,2.051,0.000
-6.155,6.425,2.054,0.000
-6.119,6.433,2.050,0.000
-6.098,6.453,2.050,0.000
-6.075,6.474,2.050,0.000
-6.045,6.487,2.047,0.000
-6.043,6.531,2.054,0.000
-6.015,6.546,2.052,0.000
-5.998,6.573,2.054,0.000
-5.988,6.608,2.059,0.000
-5.957,6.620,2.056,0.000
-5.924,6.628,2.052,0.000
-5.912,6.661,2.056,0.000
-5.877,6.671,2.052,0.000
-5.882,6.723,2.062,0.000
-5.849,6.731,2.059,0.000
-5.795,6.716,2.048,0.000
-5.802,6.772,2.059,0.000
-5.776,6.789,2.058,0.000
-5.755,6.812,2.059,0.000
-5.713,6.811,2.052,0.000
-5.718,6.863,2.062,0.000
-5.674,6.859,2.055,0.000
-5.668,6.900,2.061,0.000
-5.656,6.935,2.066,0.000
-5.602,6.918,2.055,0.000
-1.920,2.387,0.707,2.000
-1.912,2.396,0.708,6.000
-1.911,2.411,0.710,5.000
-1.883,2.392,0.703,2.000
-1.829,2.340,0.686,1.000
-1.800,2.320,0.678,1.000
-1.780,2.311,0.674,2.000
-1.758,2.299,0.668,2.000
-1.732,2.281,0.661,2.000
-1.709,2.265,0.655,3.000
-1.675,2.237,0.645,2.000
-1.658,2.230,0.642,2.000
-1.640,2.222,0.638,3.000
-1.615,2.204,0.631,2.000
-1.597,2.195,0.627,2.000
-1.596,2.210,0.629,1.000
-1.583,2.208,0.627,1.000
-1.554,2.185,0.619,1.000
-1.450,2.054,0.580,4.000
-1.432,2.042,0.576,3.000
-1.411,2.026,0.570,3.000
-1.393,2.017,0.566,3.000
-1.375,2.006,0.561,8.000
-1.361,1.999,0.558,13.000
-1.344,1.989,0.554,31.000
-1.327,1.980,0.550,40.000
-1.309,1.968,0.546,38.000
-1.297,1.964,0.543,48.000
-1.294,1.974,0.545,100.000
-1.284,1.973,0.543,100.000
-1.272,1.969,0.541,52.000
-1.258,1.964,0.539,47.000
-1.246,1.960,0.536,43.000
-1.237,1.961,0.535,42.000
-1.218,1.946,0.530,43.000
-1.197,1.927,0.524,45.000
-1.187,1.926,0.522,47.000
-1.172,1.917,0.519,47.000
-1.162,1.914,0.517,47.000
-1.142,1.897,0.511,46.000
-1.126,1.885,0.507,47.000
-1.113,1.877,0.504,45.000
-1.104,1.876,0.503,47.000
-1.094,1.875,0.501,46.000
-1.075,1.857,0.495,47.000
-1.063,1.850,0.493,48.000
-1.053,1.849,0.491,43.000
-1.041,1.843,0.489,46.000
-1.032,1.841,0.487,62.000
-1.027,1.848,0.488,60.000
-1.022,1.853,0.489,52.000
-1.020,1.866,0.491,50.000
-1.020,1.881,0.494,44.000
-1.014,1.884,0.494,29.000
-1.012,1.896,0.496,17.000
-1.002,1.895,0.495,10.000
-1.003,1.912,0.498,6.000
-0.995,1.912,0.498,3.000
-0.991,1.921,0.499,1.000
-0.990,1.936,0.502,1.000
-0.976,1.926,0.498,1.000
0,0,0,0
0,0,0,0
0,0,0,0
0,0,0,0
0,0,0,0
0,0,0,0
0,0,0,0
0,0,0,0
0,0,0,0
0,0,0,0
0,0,0,0
0,0,0,0
0,0,0,0
0,0,0,0
0,0,0,0
0,0,0,0
0,0,0,0
0,0,0,0
0,0,0,0
0,0,0,0
0,0,0,0
0,0,0,0
0,0,0,0
0,0,0,0
0,0,0,0
0,0,0,0
0,0,0,0
0,0,0,0
0,0,0,0
0,0,0,0
0,0,0,0
0,0,0,0
0,0,0,0
0,0,0,0
0,0,0,0
0,0,0,0
0,0,0,0
0,0,0,0
0,0,0,0
0,0,0,0
0,0,0,0
0,0,0,0
0,0,0,0
0,0,0,0
0,0,0,0
0,0,0,0
0,0,0,0
0,0,0,0
0,0,0,0
0,0,0,0
0,0,0,0
0,0,0,0
0,0,0,0
0,0,0,0
0,0,0,0
0,0,0,0
0,0,0,0
0,0,0,0
0,0,0,0
0,0,0,0
0,0,0,0
0,0,0,0
0,0,0,0
0,0,0,0
0,0,0,0
0,0,0,0
0,0,0,0
0,0,0,0
0,0,0,0
0,0,0,0
0,0,0,0
0,0,0,0
0,0,0,0
0,0,0,0
0,0,0,0
0,0,0,0
0,0,0,0
0,0,0,0
0,0,0,0
0,0,0,0
0,0,0,0
0,0,0,0
0,0,0,0
0,0,0,0
0,0,0,0
0,0,0,0
0,0,0,0
0,0,0,0
0,0,0,0
0,0,0,0
0,0,0,0
0,0,0,0
0,0,0,0
0,0,0,0
0,0,0,0
0,0,0,0
0,0,0,0
0,0,0,0
0,0,0,0
0,0,0,0
0,0,0,0
0,0,0,0
0,0,0,0
0,0,0,0
0,0,0,0
0,0,0,0
0,0,0,0
0,0,0,0
0,0,0,0
0,0,0,0
0,0,0,0
0,0,0,0
0,0,0,0
0,0,0,0
0,0,0,0
0,0,0,0
0,0,0,0
0,0,0,0
0,0,0,0
0,0,0,0
0,0,0,0
0,0,0,0
0,0,0,0
0,0,0,0
0,0,0,0
0,0,0,0
0,0,0,0
0,0,0,0
0,0,0,0
0,0,0,0
0,0,0,0
0,0,0,0
0,0,0,0
0,0,0,0
0,0,0,0
0,0,0,0
0,0,0,0
0,0,0,0
0,0,0,0
0,0,0,0
0,0,0,0
0,0,0,0
0,0,0,0
0,0,0,0
0,0,0,0
0,0,0,0
0,0,0,0
0,0,0,0
0,0,0,0
0,0,0,0
0,0,0,0
0,0,0,0
0,0,0,0
0,0,0,0
0,0,0,0
0,0,0,0
0,0,0,0
0,0,0,0
0,0,0,0
0,0,0,0
0,0,0,0
0,0,0,0
0,0,0,0
0,0,0,0
0,0,0,0
0,0,0,0
0,0,0,0
0,0,0,0
0,0,0,0
0,0,0,0
0,0,0,0
0,0,0,0
0,0,0,0
0,0,0,0
0,0,0,0
0,0,0,0
0,0,0,0
0,0,0,0
0,0,0,0
0,0,0,0
0,0,0,0
0,0,0,0
0,0,0,0
0,0,0,0
0,0,0,0
0,0,0,0
0,0,0,0
0,0,0,0
0,0,0,0
0,0,0,0
0,0,0,0
0,0,0,0
0,0,0,0
0,0,0,0
0,0,0,0
0,0,0,0
0,0,0,0
0,0,0,0
0,0,0,0
0,0,0,0
0,0,0,0
0,0,0,0
0,0,0,0
0,0,0,0
0,0,0,0
0,0,0,0
0,0,0,0
0,0,0,0
0,0,0,0
0,0,0,0
0,0,0,0
0,0,0,0
0,0,0,0
0,0,0,0
0,0,0,0
0,0,0,0
0,0,0,0
0,0,0,0
0,0,0,0
0,0,0,0
0,0,0,0
0,0,0,0
0,0,0,0
0,0,0,0
0,0,0,0
0,0,0,0
0,0,0,0
0,0,0,0
0,0,0,0
3.493,10.319,2.118,0.000
3.495,10.214,2.099,0.000
3.515,10.158,2.089,0.000
3.553,10.157,2.092,0.000
3.584,10.134,2.089,1.000
3.625,10.136,2.092,1.000
3.658,10.117,2.091,1.000
3.694,10.107,2.092,2.000
3.724,10.077,2.088,4.000
3.760,10.068,2.089,5.000
3.795,10.053,2.089,5.000
3.829,10.042,2.089,5.000
3.858,10.014,2.086,6.000
3.896,10.014,2.089,6.000
3.925,9.984,2.085,6.000
3.965,9.980,2.087,9.000
4.002,9.970,2.088,13.000
4.031,9.952,2.087,13.000
4.067,9.941,2.088,16.000
4.099,9.921,2.087,18.000
4.133,9.904,2.086,21.000
4.170,9.896,2.087,21.000
4.201,9.873,2.086,23.000
4.230,9.850,2.084,25.000
4.270,9.849,2.087,30.000
4.306,9.838,2.087,30.000
4.341,9.823,2.087,30.000
4.372,9.800,2.086,31.000
4.403,9.780,2.085,33.000
4.444,9.779,2.088,37.000
4.481,9.770,2.089,36.000
4.514,9.755,2.089,36.000
4.547,9.738,2.089,38.000
4.578,9.715,2.087,39.000
4.615,9.706,2.089,38.000
4.649,9.691,2.089,37.000
4.683,9.675,2.089,37.000
4.713,9.650,2.087,39.000
4.745,9.630,2.087,40.000
4.778,9.613,2.087,39.000
4.818,9.609,2.089,36.000
4.852,9.593,2.090,39.000
4.882,9.569,2.088,38.000
4.909,9.547,2.087,39.000
4.944,9.533,2.087,38.000
4.981,9.523,2.089,38.000
5.016,9.509,2.090,39.000
5.047,9.484,2.088,39.000
5.081,9.468,2.089,36.000
5.109,9.441,2.087,39.000
5.148,9.434,2.089,38.000
5.179,9.412,2.088,40.000
5.204,9.380,2.085,41.000
5.237,9.362,2.085,39.000
5.271,9.347,2.086,39.000
5.304,9.333,2.087,40.000
5.341,9.321,2.088,40.000
5.371,9.295,2.087,38.000
5.397,9.266,2.084,39.000
5.432,9.255,2.086,39.000
5.466,9.239,2.087,40.000
5.499,9.229,2.088,38.000
5.527,9.203,2.087,38.000
5.557,9.176,2.085,39.000
5.591,9.160,2.086,40.000
5.631,9.156,2.089,33.000
5.654,9.123,2.086,33.000
5.689,9.104,2.087,39.000
5.716,9.077,2.085,40.000
5.753,9.068,2.087,38.000
5.782,9.045,2.087,39.000
5.814,9.025,2.087,40.000
5.841,8.998,2.085,40.000
5.877,8.984,2.087,40.000
5.908,8.963,2.087,39.000
5.941,8.948,2.088,37.000
5.972,8.928,2.088,37.000
6.002,8.905,2.087,40.000
6.031,8.881,2.087,39.000
6.061,8.865,2.087,38.000
6.094,8.847,2.088,39.000
6.129,8.828,2.089,39.000
6.165,8.815,2.091,23.000
6.173,8.764,2.084,36.000
6.215,8.758,2.087,38.000
6.248,8.739,2.088,38.000
6.282,8.722,2.089,37.000
6.305,8.694,2.087,38.000
6.333,8.668,2.087,38.000
6.365,8.649,2.087,39.000
6.398,8.630,2.088,38.000
6.429,8.607,2.088,38.000
6.457,8.581,2.087,39.000
6.484,8.555,2.087,40.000
6.517,8.536,2.087,38.000
6.550,8.520,2.089,38.000
6.584,8.504,2.091,38.000
6.609,8.474,2.089,39.000
6.629,8.439,2.086,39.000
6.666,8.425,2.088,30.000
6.688,8.392,2.086,38.000
6.723,8.379,2.088,39.000
6.745,8.347,2.086,41.000
6.774,8.323,2.086,41.000
6.801,8.298,2.086,41.000
6.837,8.279,2.087,41.000
6.868,8.258,2.088,43.000
6.887,8.219,2.084,48.000
6.917,8.197,2.085,54.000
6.945,8.178,2.086,58.000
6.981,8.163,2.088,60.000
7.011,8.137,2.088,102.000
7.034,8.107,2.086,113.000
7.065,8.085,2.087,125.000
7.100,8.068,2.089,126.000
7.133,8.051,2.091,135.000
7.170,8.037,2.094,135.000
7.179,7.990,2.088,37.000
7.197,7.954,2.085,40.000
7.230,7.935,2.087,38.000
7.263,7.915,2.088,38.000
7.288,7.887,2.087,38.000
7.310,7.856,2.086,38.000
7.336,7.832,2.086,39.000
7.366,7.809,2.087,38.000
7.396,7.786,2.087,38.000
7.419,7.756,2.086,37.000
7.440,7.723,2.084,39.000
7.469,7.700,2.085,39.000
7.496,7.679,2.086,38.000
7.528,7.658,2.087,39.000
7.556,7.633,2.088,37.000
7.579,7.603,2.087,39.000
7.597,7.568,2.084,39.000
7.630,7.548,2.086,37.000
7.664,7.528,2.088,39.000
7.690,7.502,2.088,40.000
7.706,7.465,2.086,41.000
7.728,7.434,2.084,40.000
7.753,7.409,2.084,40.000
7.787,7.390,2.087,40.000
7.813,7.362,2.087,40.000
7.801,7.300,2.077,50.000
7.816,7.261,2.074,110.000
7.833,7.225,2.071,116.000
7.880,7.221,2.078,113.000
7.936,7.221,2.086,27.000
7.948,7.184,2.082,36.000
7.976,7.159,2.083,41.000
8.008,7.137,2.085,41.000
8.036,7.112,2.086,41.000
8.067,7.089,2.087,40.000
8.085,7.056,2.086,38.000
8.107,7.025,2.085,41.000
8.134,6.999,2.086,40.000
8.161,6.975,2.087,39.000
8.185,6.946,2.087,41.000
8.209,6.918,2.087,39.000
8.227,6.884,2.085,39.000
8.248,6.853,2.084,40.000
8.281,6.831,2.087,41.000
8.305,6.802,2.087,40.000
8.326,6.771,2.086,39.000
8.340,6.734,2.084,41.000
8.373,6.712,2.086,41.000
8.405,6.691,2.088,39.000
8.425,6.659,2.087,40.000
8.439,6.622,2.085,40.000
8.459,6.590,2.084,41.000
8.494,6.574,2.088,41.000
8.514,6.542,2.087,43.000
8.501,6.481,2.078,13.000
8.442,6.390,2.058,7.000
8.369,6.288,2.035,7.000
8.329,6.213,2.020,7.000
8.287,6.139,2.005,7.000
8.277,6.087,1.997,19.000
8.244,6.018,1.984,46.000
8.199,5.940,1.968,43.000
8.158,5.869,1.954,45.000
8.117,5.794,1.939,40.000
8.078,5.728,1.925,29.000
7.980,5.615,1.897,24.000
7.979,5.572,1.892,46.000
0,0,0,0
8.833,6.077,2.084,16.000
8.879,6.061,2.090,18.000
8.878,6.022,2.085,20.000
7.735,5.206,1.812,16.000
7.705,5.144,1.801,46.000
7.688,5.092,1.792,58.000
7.654,5.037,1.781,58.000
7.606,4.966,1.766,102.000
7.571,4.905,1.754,58.000
7.553,4.854,1.745,60.000
7.513,4.792,1.732,102.000
7.484,4.735,1.721,102.000
7.445,4.679,1.709,62.000
7.409,4.619,1.697,105.000
7.378,4.564,1.686,108.000
7.355,4.512,1.677,105.000
7.329,4.465,1.668,62.000
7.284,4.402,1.654,105.000
7.259,4.355,1.646,131.000
7.234,4.306,1.636,113.000
7.244,4.277,1.635,137.000
7.271,4.259,1.638,135.000
7.290,4.234,1.639,135.000
7.311,4.213,1.640,136.000
7.346,4.199,1.645,137.000
7.381,4.185,1.649,138.000
7.420,4.176,1.655,139.000
7.440,4.153,1.656,138.000
7.476,4.137,1.661,138.000
7.507,4.120,1.665,138.000
7.538,4.105,1.668,137.000
7.570,4.088,1.672,135.000
7.591,4.065,1.674,136.000
7.615,4.044,1.676,136.000
7.643,4.025,1.679,137.000
7.685,4.013,1.685,138.000
7.724,3.998,1.691,137.000
7.746,3.976,1.692,139.000
7.771,3.954,1.695,139.000
7.814,3.942,1.701,138.000
7.852,3.927,1.707,136.000
7.880,3.907,1.710,135.000
7.903,3.887,1.712,135.000
7.931,3.866,1.715,137.000
7.959,3.844,1.718,137.000
8.001,3.830,1.724,137.000
8.042,3.815,1.730,138.000
8.070,3.794,1.733,137.000
8.101,3.774,1.737,138.000
8.139,3.757,1.742,137.000
8.170,3.737,1.746,136.000
8.204,3.718,1.751,134.000
8.237,3.702,1.755,137.000
8.257,3.676,1.757,137.000
8.296,3.657,1.762,137.000
8.334,3.639,1.768,138.000
8.383,3.626,1.775,138.000
8.413,3.604,1.779,136.000
6.282,2.665,1.327,106.000
6.272,2.635,1.322,105.000
6.256,2.606,1.317,11.000
6.245,2.575,1.313,11.000
6.247,2.551,1.312,21.000
6.230,2.519,1.306,23.000
6.214,2.485,1.301,22.000
6.204,2.457,1.297,21.000
6.195,2.428,1.293,20.000
6.170,2.393,1.286,21.000
6.141,2.359,1.279,23.000
6.131,2.330,1.275,21.000
6.117,2.301,1.270,22.000
6.092,2.267,1.264,22.000
6.071,2.235,1.257,20.000
6.060,2.207,1.254,20.000
6.049,2.179,1.250,20.000
6.035,2.150,1.245,21.000
6.016,2.121,1.240,21.000
5.990,2.088,1.233,21.000
5.967,2.057,1.227,20.000
5.960,2.031,1.224,19.000
5.948,2.004,1.220,20.000
5.940,1.978,1.217,20.000
5.917,1.948,1.211,20.000
5.898,1.919,1.206,21.000
5.882,1.892,1.201,22.000
5.869,1.865,1.197,21.000
5.853,1.839,1.193,20.000
5.831,1.810,1.187,14.000
5.770,1.769,1.173,4.000
5.756,1.742,1.169,6.000
5.758,1.720,1.168,6.000
5.762,1.699,1.168,12.000
5.795,1.687,1.173,4.000
7.208,2.071,1.458,16.000
7.252,2.059,1.465,20.000
7.286,2.041,1.471,18.000
7.329,2.026,1.478,19.000
7.351,2.004,1.481,19.000
7.366,1.979,1.483,18.000
7.409,1.963,1.490,20.000
7.451,1.948,1.497,22.000
7.481,1.928,1.502,23.000
7.515,1.907,1.507,24.000
7.544,1.887,1.512,22.000
7.577,1.868,1.517,23.000
0,0,0,0
5.522,1.322,1.104,18.000
5.503,1.297,1.099,112.000
5.483,1.272,1.094,56.000
5.484,1.252,1.093,16.000
0,0,0,0
3.251,0.718,0.647,129.000
3.246,0.705,0.646,126.000
3.241,0.692,0.644,126.000
3.251,0.683,0.646,114.000
3.240,0.669,0.643,16.000
3.263,0.662,0.647,4.000
3.256,0.649,0.645,4.000
3.254,0.637,0.645,4.000
3.268,0.628,0.647,4.000
3.278,0.618,0.648,18.000
0,0,0,0
3.278,0.594,0.648,130.000
3.269,0.580,0.645,125.000
3.275,0.570,0.646,26.000
3.286,0.560,0.648,6.000
3.298,0.550,0.650,4.000
3.284,0.536,0.647,4.000
3.288,0.525,0.647,4.000
3.290,0.513,0.647,4.000
3.301,0.503,0.649,5.000
3.311,0.493,0.651,24.000
0,0,0,0
3.302,0.469,0.648,34.000
0,0,0,0
3.321,0.448,0.651,4.000
3.329,0.438,0.653,4.000
3.313,0.424,0.649,4.000
3.316,0.412,0.650,4.000
3.325,0.402,0.651,4.000
3.334,0.392,0.653,4.000
3.355,0.382,0.656,9.000
0,0,0,0
3.336,0.357,0.652,10.000
3.343,0.345,0.653,7.000
3.354,0.335,0.655,5.000
3.351,0.323,0.654,4.000
3.355,0.311,0.655,4.000
3.356,0.299,0.655,3.000
3.361,0.288,0.656,3.000
3.383,0.278,0.660,9.000
0,0,0,0
3.381,0.254,0.659,130.000
3.368,0.241,0.656,31.000
0,0,0,0
3.395,0.220,0.661,4.000
3.400,0.209,0.662,4.000
3.397,0.196,0.661,4.000
3.386,0.184,0.659,4.000
0,0,0,0
3.402,0.160,0.662,110.000
3.419,0.149,0.665,130.000
3.415,0.138,0.664,131.000
3.406,0.125,0.662,129.000
0,0,0,0
3.426,0.102,0.666,4.000
3.434,0.091,0.668,4.000
3.429,0.079,0.667,4.000
3.410,0.067,0.663,1.000
0,0,0,0
4.802,0.060,0.933,124.000
4.796,0.043,0.932,130.000
4.777,0.026,0.928,133.000
4.767,0.009,0.927,134.000
4.751,-0.007,0.924,134.000
4.761,-0.023,0.925,135.000
4.743,-0.040,0.922,135.000
4.723,-0.056,0.918,133.000
4.713,-0.072,0.916,133.000
4.713,-0.089,0.916,135.000
4.711,-0.105,0.916,131.000
4.714,-0.122,0.917,136.000
4.686,-0.137,0.911,134.000
4.680,-0.153,0.910,133.000
4.673,-0.169,0.909,114.000
0,0,0,0
4.658,-0.200,0.906,16.000
4.646,-0.216,0.904,37.000
4.661,-0.234,0.907,132.000
4.662,-0.250,0.907,126.000
4.653,-0.266,0.906,128.000
4.652,-0.282,0.906,126.000
4.628,-0.296,0.901,129.000
4.617,-0.312,0.899,130.000
4.618,-0.327,0.900,129.000
4.615,-0.343,0.899,131.000
4.602,-0.359,0.897,130.000
4.585,-0.374,0.894,133.000
4.568,-0.389,0.891,131.000
4.566,-0.405,0.891,130.000
4.565,-0.420,0.891,130.000
4.556,-0.435,0.890,133.000
4.538,-0.449,0.886,133.000
4.525,-0.464,0.884,131.000
4.524,-0.479,0.884,133.000
4.522,-0.494,0.884,133.000
4.516,-0.511,0.883,131.000
4.495,-0.524,0.880,131.000
4.481,-0.538,0.877,131.000
4.479,-0.553,0.877,131.000
4.474,-0.568,0.877,131.000
4.472,-0.583,0.877,133.000
4.450,-0.596,0.873,133.000
4.436,-0.610,0.870,130.000
4.434,-0.626,0.870,131.000
4.432,-0.641,0.870,131.000
4.424,-0.656,0.869,129.000
4.410,-0.669,0.867,129.000
4.394,-0.682,0.864,130.000
4.398,-0.698,0.866,129.000
4.393,-0.713,0.865,130.000
4.393,-0.729,0.866,129.000
4.373,-0.741,0.862,133.000
4.355,-0.754,0.859,133.000
4.356,-0.770,0.860,133.000
4.349,-0.784,0.859,133.000
4.350,-0.800,0.860,133.000
4.326,-0.811,0.856,134.000
4.322,-0.824,0.855,135.000
4.313,-0.838,0.854,135.000
4.306,-0.853,0.853,132.000
4.307,-0.869,0.854,134.000
4.281,-0.879,0.849,134.000
4.278,-0.894,0.849,134.000
4.263,-0.907,0.847,134.000
4.269,-0.924,0.849,135.000
4.257,-0.937,0.847,134.000
4.251,-0.951,0.847,135.000
4.223,-0.959,0.842,134.000
4.233,-0.977,0.845,135.000
4.220,-0.990,0.843,133.000
4.200,-1.001,0.839,40.000
4.177,-1.011,0.835,43.000
4.170,-1.024,0.835,45.000
4.182,-1.042,0.838,132.000
4.161,-1.052,0.834,58.000
4.167,-1.069,0.836,54.000
4.163,-1.084,0.836,105.000
7.280,-1.922,1.464,113.000
7.267,-1.946,1.462,118.000
7.264,-1.974,1.463,118.000
7.249,-1.997,1.462,121.000
7.220,-2.016,1.457,116.000
7.205,-2.039,1.455,118.000
7.198,-2.064,1.455,114.000
7.191,-2.089,1.455,113.000
7.179,-2.113,1.455,118.000
7.153,-2.132,1.451,113.000
7.140,-2.154,1.450,108.000
7.140,-2.182,1.451,113.000
7.123,-2.205,1.449,110.000
7.115,-2.230,1.449,110.000
7.100,-2.251,1.448,110.000
7.079,-2.272,1.445,102.000
7.068,-2.295,1.444,108.000
7.060,-2.320,1.444,108.000
7.051,-2.344,1.444,105.000
7.032,-2.365,1.442,102.000
7.013,-2.386,1.440,25.000
7.008,-2.412,1.441,25.000
6.996,-2.435,1.440,25.000
6.987,-2.459,1.440,25.000
6.967,-2.480,1.438,25.000
6.951,-2.501,1.436,105.000
0,0,0,0
0,0,0,0
3.936,-1.463,0.816,121.000
3.931,-1.477,0.816,135.000
3.898,-1.480,0.811,137.000
3.890,-1.492,0.810,138.000
3.888,-1.507,0.811,138.000
3.885,-1.522,0.811,139.000
3.870,-1.531,0.809,137.000
3.857,-1.542,0.808,138.000
3.852,-1.556,0.808,137.000
3.857,-1.573,0.810,140.000
3.848,-1.585,0.809,138.000
3.836,-1.596,0.808,137.000
3.823,-1.606,0.806,138.000
3.819,-1.620,0.806,139.000
3.819,-1.635,0.808,137.000
3.813,-1.649,0.808,136.000
3.793,-1.656,0.804,137.000
3.787,-1.669,0.804,137.000
3.771,-1.677,0.802,55.000
3.781,-1.698,0.806,141.000
3.759,-1.703,0.802,139.000
3.747,-1.714,0.801,141.000
3.738,-1.726,0.800,141.000
3.732,-1.739,0.800,141.000
3.733,-1.755,0.802,141.000
3.728,-1.769,0.802,140.000
3.719,-1.780,0.801,139.000
3.702,-1.788,0.799,137.000
3.696,-1.801,0.799,137.000
3.696,-1.817,0.801,138.000
3.691,-1.829,0.801,138.000
3.674,-1.836,0.798,137.000
3.658,-1.845,0.796,139.000
3.659,-1.861,0.798,139.000
3.654,-1.875,0.798,139.000
3.653,-1.891,0.799,141.000
3.636,-1.898,0.797,139.000
3.631,-1.911,0.798,138.000
3.624,-1.924,0.798,138.000
3.624,-1.940,0.799,139.000
3.618,-1.953,0.799,139.000
3.604,-1.962,0.798,138.000
3.597,-1.975,0.798,138.000
3.591,-1.988,0.798,139.000
3.586,-2.002,0.798,139.000
3.586,-2.018,0.800,139.000
