"X","Y","Z","Intensity"
2.724,-3.481,1.184,130.000
2.716,-3.494,1.186,132.000
2.715,-3.520,1.191,133.000
2.705,-3.533,1.192,132.000
2.703,-3.558,1.197,131.000
2.692,-3.566,1.197,131.000
2.679,-3.576,1.197,132.000
2.675,-3.594,1.200,131.000
2.673,-3.619,1.206,131.000
2.662,-3.630,1.206,130.000
2.651,-3.640,1.207,132.000
2.638,-3.650,1.207,131.000
2.631,-3.669,1.210,129.000
2.627,-3.688,1.213,127.000
2.621,-3.707,1.216,127.000
2.606,-3.713,1.215,125.000
2.595,-3.727,1.217,130.000
2.590,-3.745,1.220,128.000
2.585,-3.767,1.224,131.000
2.579,-3.788,1.228,133.000
2.557,-3.784,1.224,127.000
2.555,-3.809,1.229,133.000
2.537,-3.811,1.227,128.000
2.538,-3.841,1.234,131.000
2.536,-3.868,1.239,133.000
2.507,-3.852,1.231,129.000
2.508,-3.884,1.239,131.000
2.494,-3.890,1.238,129.000
2.493,-3.921,1.245,130.000
2.487,-3.942,1.249,131.000
2.473,-3.951,1.249,131.000
2.459,-3.956,1.248,130.000
2.453,-3.980,1.253,127.000
2.449,-4.003,1.257,128.000
2.438,-4.016,1.259,125.000
2.427,-4.030,1.260,119.000
2.409,-4.034,1.259,36.000
2.405,-4.056,1.264,17.000
3.819,-6.494,2.019,34.000
3.793,-6.503,2.017,36.000
3.765,-6.510,2.015,36.000
3.744,-6.522,2.015,37.000
3.723,-6.537,2.016,36.000
3.699,-6.551,2.016,36.000
3.680,-6.572,2.018,38.000
3.653,-6.574,2.015,39.000
3.623,-6.573,2.011,36.000
3.607,-6.597,2.015,36.000
3.584,-6.612,2.015,36.000
3.566,-6.630,2.017,37.000
3.537,-6.635,2.015,36.000
3.511,-6.640,2.013,36.000
3.493,-6.665,2.016,36.000
3.473,-6.680,2.017,38.000
3.448,-6.692,2.017,56.000
3.412,-6.676,2.009,21.000
3.408,-6.728,2.021,33.000
2.232,-4.444,1.332,18.000
2.223,-4.465,1.337,55.000
2.192,-4.442,1.327,29.000
2.188,-4.474,1.334,42.000
2.169,-4.470,1.331,32.000
2.157,-4.485,1.333,23.000
2.167,-4.548,1.350,45.000
2.160,-4.575,1.356,103.000
2.146,-4.586,1.357,108.000
2.132,-4.597,1.358,118.000
2.123,-4.622,1.363,115.000
2.113,-4.644,1.367,112.000
2.103,-4.663,1.371,106.000
2.090,-4.678,1.373,106.000
2.076,-4.688,1.374,106.000
2.064,-4.708,1.377,109.000
2.056,-4.733,1.383,112.000
2.042,-4.749,1.385,106.000
2.031,-4.764,1.388,109.000
2.017,-4.779,1.390,112.000
2.010,-4.807,1.396,118.000
2.003,-4.839,1.403,115.000
1.992,-4.860,1.407,115.000
1.976,-4.871,1.408,115.000
1.964,-4.888,1.412,112.000
1.956,-4.917,1.418,112.000
1.944,-4.938,1.422,109.000
1.932,-4.959,1.426,109.000
1.914,-4.964,1.426,75.000
1.901,-4.981,1.429,103.000
1.892,-5.005,1.434,106.000
1.883,-5.036,1.441,109.000
1.868,-5.054,1.444,118.000
1.853,-5.067,1.446,115.000
1.842,-5.088,1.450,112.000
1.833,-5.120,1.457,112.000
1.823,-5.152,1.464,115.000
1.812,-5.178,1.470,106.000
1.796,-5.186,1.471,109.000
1.780,-5.202,1.473,103.000
1.771,-5.229,1.479,103.000
1.757,-5.252,1.484,109.000
1.745,-5.277,1.489,112.000
1.727,-5.287,1.490,121.000
1.707,-5.279,1.487,24.000
1.695,-5.307,1.493,24.000
1.688,-5.348,1.503,47.000
1.673,-5.369,1.507,111.000
1.659,-5.386,1.510,121.000
1.640,-5.391,1.510,124.000
1.628,-5.421,1.517,122.000
1.613,-5.446,1.522,122.000
1.601,-5.469,1.527,115.000
1.584,-5.482,1.529,122.000
1.568,-5.499,1.532,115.000
1.557,-5.536,1.541,124.000
1.544,-5.564,1.547,124.000
1.540,-5.625,1.563,119.000
1.522,-5.642,1.566,119.000
1.503,-5.647,1.566,106.000
1.468,-5.595,1.550,57.000
1.446,-5.592,1.548,55.000
1.425,-5.578,1.543,56.000
1.398,-5.559,1.536,52.000
1.374,-5.545,1.531,51.000
1.353,-5.544,1.529,51.000
1.330,-5.530,1.524,50.000
1.307,-5.523,1.521,50.000
1.284,-5.503,1.514,54.000
1.259,-5.487,1.508,57.000
1.233,-5.461,1.500,57.000
1.209,-5.449,1.495,53.000
1.190,-5.447,1.494,55.000
1.164,-5.419,1.485,54.000
1.142,-5.408,1.481,52.000
1.122,-5.412,1.481,54.000
1.102,-5.400,1.477,52.000
1.081,-5.393,1.474,52.000
1.057,-5.372,1.467,51.000
1.035,-5.362,1.463,54.000
1.013,-5.345,1.458,56.000
0.993,-5.341,1.456,57.000
0.970,-5.322,1.449,56.000
0.947,-5.300,1.443,54.000
0.925,-5.282,1.437,51.000
0.907,-5.291,1.439,54.000
0.888,-5.283,1.435,54.000
0.864,-5.258,1.428,48.000
0.843,-5.239,1.422,46.000
0.821,-5.227,1.418,48.000
0.802,-5.217,1.414,51.000
0.781,-5.210,1.412,54.000
0.763,-5.205,1.410,54.000
0.741,-5.185,1.403,54.000
0.719,-5.153,1.394,54.000
0.699,-5.151,1.393,52.000
0.680,-5.138,1.389,53.000
0.662,-5.139,1.388,54.000
0.640,-5.112,1.381,51.000
0.621,-5.111,1.380,51.000
0.603,-5.105,1.377,50.000
0.584,-5.094,1.374,48.000
0.567,-5.086,1.371,50.000
0.545,-5.061,1.364,50.000
0.526,-5.050,1.360,54.000
0.506,-5.028,1.354,54.000
0.488,-5.026,1.353,53.000
0.469,-5.016,1.350,54.000
0.450,-4.997,1.344,56.000
0.432,-4.987,1.341,55.000
0.413,-4.975,1.338,54.000
0.395,-4.969,1.336,52.000
0.377,-4.962,1.333,53.000
0.358,-4.950,1.330,52.000
0.343,-4.945,1.328,57.000
0.324,-4.933,1.325,52.000
0.306,-4.932,1.324,57.000
0.287,-4.920,1.320,51.000
0.272,-4.907,1.317,50.000
0.253,-4.893,1.313,51.000
0.235,-4.890,1.312,51.000
0.217,-4.883,1.310,51.000
0.200,-4.882,1.309,54.000
0.181,-4.853,1.301,56.000
0.166,-4.836,1.297,54.000
0.149,-4.829,1.295,54.000
0.131,-4.826,1.294,54.000
0.114,-4.821,1.292,55.000
0.097,-4.802,1.287,55.000
0.080,-4.785,1.282,54.000
0.064,-4.777,1.280,53.000
0.047,-4.773,1.279,52.000
0.029,-4.775,1.280,55.000
0.012,-4.754,1.274,52.000
-0.003,-4.754,1.274,60.000
-0.021,-4.747,1.272,53.000
-0.036,-4.739,1.270,51.000
-0.054,-4.737,1.269,57.000
-0.068,-4.721,1.265,55.000
-0.085,-4.707,1.261,53.000
-0.100,-4.701,1.260,57.000
-0.117,-4.701,1.260,56.000
-0.134,-4.700,1.260,55.000
-0.150,-4.669,1.252,56.000
-0.165,-4.655,1.248,54.000
-0.181,-4.652,1.248,55.000
-0.197,-4.646,1.246,54.000
-0.214,-4.645,1.246,54.000
-0.228,-4.619,1.239,55.000
-0.243,-4.607,1.236,55.000
-0.258,-4.589,1.231,52.000
-0.277,-4.615,1.239,60.000
-0.290,-4.591,1.232,52.000
-0.305,-4.566,1.226,53.000
-0.320,-4.554,1.223,53.000
-0.336,-4.555,1.224,55.000
-0.352,-4.548,1.222,54.000
-0.367,-4.542,1.221,54.000
-0.382,-4.530,1.218,53.000
-0.398,-4.519,1.215,55.000
-0.413,-4.515,1.215,54.000
-0.430,-4.521,1.217,55.000
-0.336,-3.416,0.920,12.000
0,0,0,0
-0.358,-3.395,0.915,133.000
-0.369,-3.380,0.911,129.000
-0.381,-3.392,0.915,133.000
-0.392,-3.381,0.912,132.000
-0.402,-3.365,0.908,129.000
-0.413,-3.359,0.907,130.000
-0.425,-3.358,0.907,131.000
-0.438,-3.360,0.908,130.000
-0.448,-3.351,0.906,130.000
-0.457,-3.334,0.902,128.000
-0.468,-3.329,0.901,128.000
-0.481,-3.327,0.901,131.000
-0.491,-3.321,0.900,130.000
-0.503,-3.320,0.900,130.000
-0.513,-3.306,0.897,131.000
-0.524,-3.301,0.896,131.000
-0.534,-3.291,0.893,132.000
-0.546,-3.289,0.893,133.000
-0.558,-3.293,0.895,134.000
-0.566,-3.272,0.890,134.000
-0.575,-3.257,0.886,132.000
-0.587,-3.259,0.887,133.000
-0.597,-3.255,0.887,134.000
-0.610,-3.255,0.887,133.000
-0.619,-3.243,0.885,134.000
-0.628,-3.227,0.881,131.000
-0.639,-3.225,0.881,132.000
-0.651,-3.227,0.882,132.000
-0.659,-3.210,0.878,132.000
-0.667,-3.194,0.874,132.000
-0.678,-3.190,0.874,135.000
-0.690,-3.189,0.874,132.000
-0.700,-3.185,0.874,134.000
-0.711,-3.183,0.874,134.000
-0.720,-3.171,0.871,133.000
-0.728,-3.153,0.867,132.000
-0.741,-3.160,0.870,134.000
-0.752,-3.157,0.870,134.000
-0.761,-3.149,0.868,132.000
-0.772,-3.144,0.868,134.000
-0.779,-3.129,0.864,131.000
-0.789,-3.122,0.863,129.000
-0.807,-3.146,0.870,134.000
-0.813,-3.124,0.865,131.000
-0.820,-3.104,0.860,130.000
-0.836,-3.118,0.865,134.000
-0.840,-3.097,0.860,131.000
-0.852,-3.096,0.860,129.000
-0.867,-3.110,0.865,134.000
-0.871,-3.080,0.858,131.000
-0.879,-3.072,0.856,130.000
-0.892,-3.074,0.858,131.000
-0.904,-3.077,0.859,128.000
-0.915,-3.076,0.860,131.000
-0.925,-3.069,0.859,131.000
-0.933,-3.054,0.856,131.000
-0.942,-3.045,0.854,129.000
-0.956,-3.051,0.857,130.000
-0.967,-3.055,0.859,134.000
-0.972,-3.032,0.853,130.000
-0.980,-3.019,0.850,132.000
-0.992,-3.019,0.852,131.000
-1.003,-3.019,0.853,131.000
-1.014,-3.016,0.853,131.000
-1.022,-3.007,0.851,130.000
-1.029,-2.994,0.848,133.000
-1.040,-2.995,0.849,132.000
-1.051,-2.991,0.849,131.000
-1.064,-2.992,0.851,130.000
-1.072,-2.979,0.848,130.000
-1.078,-2.969,0.846,128.000
-1.090,-2.969,0.847,128.000
-1.100,-2.965,0.847,128.000
-1.112,-2.963,0.848,127.000
-1.118,-2.950,0.845,130.000
-1.126,-2.939,0.843,130.000
-1.137,-2.941,0.845,121.000
-1.177,-3.012,0.867,27.000
-1.218,-3.085,0.889,29.000
-1.253,-3.142,0.906,27.000
-1.290,-3.202,0.925,27.000
-1.342,-3.298,0.954,29.000
-1.384,-3.368,0.976,27.000
-1.439,-3.467,1.006,27.000
-1.491,-3.556,1.033,28.000
-1.548,-3.656,1.064,39.000
-1.611,-3.768,1.098,103.000
-1.629,-3.774,1.102,133.000
-1.643,-3.772,1.103,131.000
-1.653,-3.758,1.100,138.000
-1.663,-3.747,1.098,137.000
-1.679,-3.746,1.100,138.000
-1.692,-3.742,1.100,137.000
-1.706,-3.736,1.100,137.000
-1.712,-3.716,1.096,137.000
-1.725,-3.708,1.096,138.000
-1.742,-3.713,1.099,139.000
-1.754,-3.703,1.098,138.000
-1.767,-3.699,1.098,137.000
-1.772,-3.675,1.093,137.000
-1.785,-3.671,1.094,138.000
-1.801,-3.672,1.096,138.000
-1.813,-3.666,1.096,139.000
-1.828,-3.663,1.097,138.000
-1.835,-3.646,1.094,139.000
-1.845,-3.633,1.092,138.000
-1.859,-3.630,1.093,138.000
-1.876,-3.630,1.095,138.000
-1.888,-3.624,1.095,138.000
-1.897,-3.610,1.093,137.000
-1.908,-3.600,1.092,140.000
-1.921,-3.595,1.092,138.000
-1.936,-3.591,1.093,138.000
-1.951,-3.588,1.094,138.000
-1.955,-3.568,1.090,138.000
-1.968,-3.561,1.090,138.000
-1.977,-3.551,1.089,139.000
-1.995,-3.552,1.092,137.000
-2.012,-3.554,1.094,138.000
-2.017,-3.533,1.090,138.000
-2.029,-3.527,1.090,139.000
-2.042,-3.519,1.090,138.000
-2.057,-3.519,1.092,139.000
-2.072,-3.515,1.093,138.000
-2.078,-3.498,1.090,138.000
-2.088,-3.487,1.089,139.000
-2.104,-3.487,1.091,138.000
-2.123,-3.489,1.094,139.000
-2.132,-3.479,1.093,139.000
-2.140,-3.465,1.091,138.000
-2.151,-3.454,1.090,138.000
-2.165,-3.449,1.091,139.000
-2.182,-3.452,1.094,139.000
-2.195,-3.446,1.095,137.000
-2.202,-3.430,1.092,139.000
-2.210,-3.416,1.090,138.000
-2.226,-3.413,1.092,140.000
-2.243,-3.413,1.094,138.000
-2.252,-3.404,1.094,137.000
-2.263,-3.393,1.093,137.000
-2.273,-3.384,1.092,139.000
-2.292,-3.385,1.095,138.000
-2.302,-3.378,1.095,139.000
-2.317,-3.372,1.096,138.000
-2.324,-3.358,1.094,138.000
-2.338,-3.351,1.095,140.000
-2.351,-3.344,1.095,139.000
-2.367,-3.342,1.097,138.000
-2.379,-3.338,1.098,138.000
-2.384,-3.320,1.095,139.000
-2.396,-3.312,1.095,138.000
-2.412,-3.310,1.097,139.000
-2.427,-3.306,1.099,137.000
-2.442,-3.302,1.100,138.000
-2.449,-3.287,1.098,138.000
-2.458,-3.274,1.097,137.000
-2.473,-3.272,1.099,137.000
-2.487,-3.266,1.100,137.000
-2.506,-3.266,1.103,137.000
-2.510,-3.248,1.100,137.000
-2.521,-3.238,1.099,136.000
-2.538,-3.237,1.102,137.000
-2.555,-3.236,1.105,135.000
-2.570,-3.231,1.106,137.000
-2.572,-3.212,1.103,136.000
-2.586,-3.206,1.104,136.000
-2.600,-3.202,1.105,137.000
-2.614,-3.196,1.106,137.000
-2.628,-3.191,1.108,136.000
-2.631,-3.171,1.104,132.000
-2.634,-3.154,1.101,63.000
0,0,0,0
0,0,0,0
-4.837,-5.670,1.997,1.000
-4.853,-5.649,1.995,0.000
-4.873,-5.629,1.995,1.000
-4.898,-5.618,1.997,1.000
-4.909,-5.592,1.994,1.000
-4.933,-5.579,1.995,1.000
-4.951,-5.558,1.994,1.000
-4.959,-5.530,1.990,0.000
-4.992,-5.529,1.996,1.000
-5.009,-5.506,1.994,0.000
-5.038,-5.500,1.999,0.000
-5.037,-5.462,1.991,0.000
-5.066,-5.456,1.995,1.000
-5.078,-5.432,1.992,0.000
-5.106,-5.422,1.995,1.000
-5.117,-5.400,1.993,1.000
-5.129,-5.373,1.990,1.000
-5.136,-5.345,1.986,0.000
0,0,0,0
0,0,0,0
-5.934,-6.045,2.270,0.000
-5.930,-6.001,2.261,0.000
0,0,0,0
0,0,0,0
0,0,0,0
0,0,0,0
0,0,0,0
-5.449,-5.290,2.035,0.000
-5.426,-5.230,2.019,0.000
-5.374,-5.145,1.993,0.000
-5.331,-5.066,1.971,0.000
-5.264,-4.969,1.940,0.000
-5.233,-4.906,1.922,2.000
-5.262,-4.898,1.926,3.000
-5.287,-4.887,1.929,3.000
-5.305,-4.868,1.929,1.000
-5.332,-4.859,1.933,1.000
-5.343,-4.838,1.931,0.000
0,0,0,0
0,0,0,0
0,0,0,0
0,0,0,0
0,0,0,0
0,0,0,0
0,0,0,0
0,0,0,0
0,0,0,0
0,0,0,0
-4.669,-3.911,1.632,0.000
-4.632,-3.854,1.615,0.000
-4.576,-3.779,1.590,0.000
-4.552,-3.735,1.578,0.000
-4.529,-3.690,1.565,0.000
-4.495,-3.634,1.549,0.000
-4.482,-3.597,1.540,0.000
-4.453,-3.550,1.526,0.000
-4.446,-3.519,1.519,3.000
-4.462,-3.505,1.520,3.000
-4.483,-3.496,1.523,3.000
-4.495,-3.481,1.523,2.000
-4.526,-3.479,1.530,1.000
-4.519,-3.453,1.524,0.000
-4.598,-3.486,1.546,0.000
0,0,0,0
0,0,0,0
0,0,0,0
0,0,0,0
0,0,0,0
0,0,0,0
0,0,0,0
0,0,0,0
0,0,0,0
0,0,0,0
0,0,0,0
0,0,0,0
0,0,0,0
-4.096,-2.802,1.330,2.000
-4.091,-2.778,1.325,6.000
0,0,0,0
-4.112,-2.751,1.326,56.000
-4.127,-2.740,1.327,51.000
-4.131,-2.722,1.326,27.000
0,0,0,0
-4.153,-2.695,1.327,1.000
-4.179,-2.691,1.332,2.000
-4.206,-2.688,1.338,1.000
-4.228,-2.680,1.341,0.000
-2.793,-1.757,0.884,4.000
0,0,0,0
-2.790,-1.729,0.879,105.000
-2.780,-1.709,0.874,49.000
-2.751,-1.678,0.863,37.000
-2.735,-1.655,0.857,36.000
-2.679,-1.610,0.838,21.000
-2.685,-1.600,0.838,32.000
-2.690,-1.592,0.838,38.000
-2.686,-1.576,0.834,39.000
-2.675,-1.556,0.829,43.000
-2.676,-1.544,0.828,40.000
-2.666,-1.526,0.823,39.000
-2.654,-1.507,0.818,38.000
-2.635,-1.486,0.811,37.000
-2.626,-1.467,0.806,36.000
-2.622,-1.454,0.803,37.000
-2.621,-1.441,0.801,38.000
-2.612,-1.424,0.797,39.000
-2.593,-1.402,0.790,37.000
-2.574,-1.380,0.783,38.000
-2.566,-1.364,0.779,37.000
-2.563,-1.352,0.776,63.000
-2.554,-1.335,0.772,47.000
-2.538,-1.317,0.766,46.000
-2.527,-1.299,0.761,45.000
-2.520,-1.285,0.758,42.000
-2.529,-1.278,0.759,45.000
-2.513,-1.259,0.753,44.000
-2.500,-1.241,0.748,45.000
-2.487,-1.225,0.743,45.000
-2.481,-1.211,0.740,45.000
-2.480,-1.199,0.738,46.000
-2.469,-1.183,0.733,45.000
-2.452,-1.165,0.727,44.000
-2.435,-1.146,0.721,45.000
-2.439,-1.138,0.721,45.000
-2.428,-1.123,0.717,43.000
-2.426,-1.111,0.715,45.000
-2.412,-1.094,0.710,43.000
-2.407,-1.082,0.707,43.000
-2.404,-1.071,0.705,41.000
-2.398,-1.059,0.702,40.000
-2.391,-1.046,0.699,38.000
-2.384,-1.033,0.696,40.000
-2.368,-1.016,0.691,41.000
-2.368,-1.007,0.689,50.000
-2.352,-0.990,0.684,21.000
-2.370,-0.988,0.688,14.000
0,0,0,0
-3.963,-1.620,1.147,2.000
-3.996,-1.616,1.155,2.000
-4.005,-1.603,1.156,2.000
-4.032,-1.597,1.162,2.000
-4.039,-1.585,1.163,2.000
-4.057,-1.575,1.166,2.000
-4.077,-1.567,1.170,2.000
-4.090,-1.556,1.172,2.000
-4.104,-1.545,1.175,2.000
0,0,0,0
-2.268,-0.836,0.648,5.000
0,0,0,0
-2.259,-0.815,0.643,46.000
-2.245,-0.800,0.639,47.000
-2.235,-0.789,0.635,46.000
-2.233,-0.779,0.634,51.000
-2.226,-0.768,0.631,48.000
-2.225,-0.759,0.630,48.000
-2.219,-0.748,0.627,51.000
-2.207,-0.735,0.623,50.000
-2.202,-0.726,0.621,50.000
-2.195,-0.715,0.619,48.000
-2.196,-0.707,0.618,50.000
-2.187,-0.695,0.615,47.000
-2.171,-0.682,0.610,47.000
-2.163,-0.671,0.607,47.000
-2.163,-0.664,0.606,48.000
-2.156,-0.653,0.604,50.000
-2.158,-0.646,0.604,50.000
-2.144,-0.633,0.599,54.000
-2.133,-0.622,0.595,50.000
-2.133,-0.614,0.595,54.000
-2.128,-0.605,0.593,54.000
-2.132,-0.598,0.593,50.000
-2.123,-0.587,0.590,55.000
-2.112,-0.576,0.586,56.000
-2.110,-0.568,0.585,56.000
-2.106,-0.558,0.584,55.000
-2.108,-0.551,0.584,55.000
-2.095,-0.540,0.580,60.000
-2.078,-0.528,0.575,58.000
-2.080,-0.521,0.575,60.000
-2.082,-0.514,0.575,58.000
-2.080,-0.505,0.574,60.000
-2.063,-0.494,0.568,58.000
-2.053,-0.484,0.565,58.000
-2.057,-0.478,0.566,56.000
-2.060,-0.470,0.566,60.000
-2.047,-0.460,0.562,55.000
-2.041,-0.451,0.560,60.000
-2.033,-0.442,0.557,56.000
-2.033,-0.434,0.557,58.000
-2.030,-0.427,0.556,58.000
-2.028,-0.419,0.555,58.000
-2.016,-0.409,0.551,56.000
-2.006,-0.400,0.548,54.000
-2.004,-0.392,0.547,52.000
-2.002,-0.384,0.546,54.000
-2.007,-0.378,0.547,54.000
-1.997,-0.369,0.544,54.000
-1.981,-0.359,0.539,45.000
-1.984,-0.352,0.540,24.000
-1.991,-0.347,0.541,11.000
-1.990,-0.339,0.541,8.000
-1.984,-0.331,0.539,7.000
-1.968,-0.321,0.534,7.000
-1.967,-0.314,0.534,4.000
-1.968,-0.307,0.534,2.000
-1.965,-0.300,0.533,2.000
-1.951,-0.291,0.529,0.000
0,0,0,0
0,0,0,0
0,0,0,0
0,0,0,0
0,0,0,0
0,0,0,0
0,0,0,0
0,0,0,0
0,0,0,0
0,0,0,0
0,0,0,0
0,0,0,0
0,0,0,0
0,0,0,0
0,0,0,0
0,0,0,0
0,0,0,0
0,0,0,0
0,0,0,0
0,0,0,0
0,0,0,0
0,0,0,0
0,0,0,0
0,0,0,0
0,0,0,0
0,0,0,0
0,0,0,0
0,0,0,0
0,0,0,0
0,0,0,0
0,0,0,0
0,0,0,0
0,0,0,0
0,0,0,0
0,0,0,0
0,0,0,0
0,0,0,0
0,0,0,0
0,0,0,0
0,0,0,0
0,0,0,0
0,0,0,0
0,0,0,0
0,0,0,0
0,0,0,0
0,0,0,0
0,0,0,0
0,0,0,0
0,0,0,0
0,0,0,0
0,0,0,0
0,0,0,0
0,0,0,0
0,0,0,0
0,0,0,0
0,0,0,0
0,0,0,0
0,0,0,0
0,0,0,0
0,0,0,0
0,0,0,0
0,0,0,0
0,0,0,0
0,0,0,0
0,0,0,0
0,0,0,0
-0.483,0.041,0.130,7.000
0,0,0,0
0,0,0,0
0,0,0,0
0,0,0,0
0,0,0,0
-0.524,0.056,0.141,6.000
-0.497,0.055,0.134,7.000
-0.497,0.056,0.134,7.000
0,0,0,0
-0.497,0.060,0.134,7.000
0,0,0,0
0,0,0,0
0,0,0,0
0,0,0,0
-0.496,0.068,0.134,7.000
-0.515,0.073,0.139,6.000
-0.514,0.074,0.139,6.000
0,0,0,0
0,0,0,0
-0.494,0.077,0.134,7.000
-0.540,0.086,0.146,6.000
-0.479,0.078,0.130,7.000
-0.516,0.086,0.140,6.000
0,0,0,0
-0.539,0.093,0.146,6.000
-0.519,0.092,0.141,6.000
-0.530,0.096,0.144,6.000
-0.492,0.091,0.134,7.000
-0.492,0.092,0.134,7.000
-0.514,0.098,0.140,6.000
-0.586,0.114,0.160,5.000
-0.536,0.106,0.146,6.000
-0.585,0.118,0.160,5.000
-0.490,0.101,0.134,7.000
-0.535,0.112,0.146,6.000
-0.546,0.116,0.150,6.000
-0.512,0.111,0.140,6.000
-0.534,0.117,0.146,6.000
-0.583,0.130,0.160,5.000
-0.488,0.111,0.134,7.000
-0.533,0.123,0.146,6.000
-0.581,0.136,0.160,5.000
-0.487,0.116,0.134,7.000
-0.509,0.123,0.140,6.000
-0.512,0.126,0.141,6.000
-0.579,0.145,0.160,5.000
-0.579,0.147,0.160,5.000
-0.578,0.149,0.160,5.000
-0.578,0.151,0.160,5.000
-0.529,0.140,0.146,6.000
-0.577,0.154,0.160,5.000
-0.576,0.157,0.160,5.000
-0.575,0.159,0.160,5.000
-0.575,0.160,0.160,5.000
-0.574,0.163,0.160,5.000
-0.574,0.165,0.160,5.000
-0.573,0.167,0.160,5.000
-0.573,0.168,0.160,5.000
-0.572,0.170,0.160,5.000
-0.572,0.172,0.160,5.000
-0.571,0.174,0.160,5.000
-0.570,0.177,0.160,5.000
-0.570,0.179,0.160,5.000
-0.569,0.180,0.160,5.000
-0.568,0.182,0.160,5.000
-0.568,0.184,0.160,5.000
-0.567,0.186,0.160,5.000
-0.567,0.188,0.160,5.000
-0.566,0.190,0.160,5.000
-0.565,0.192,0.160,5.000
-0.565,0.194,0.160,5.000
-0.564,0.196,0.160,5.000
-0.563,0.198,0.160,5.000
-0.562,0.200,0.160,5.000
-0.562,0.202,0.160,5.000
-0.561,0.204,0.160,5.000
-0.560,0.206,0.160,5.000
-0.607,0.225,0.173,5.000
0,0,0,0
-0.558,0.212,0.160,5.000
-0.557,0.214,0.160,5.000
-0.557,0.215,0.160,5.000
-0.556,0.218,0.160,5.000
0,0,0,0
-0.644,0.257,0.186,4.000
0,0,0,0
0,0,0,0
0,0,0,0
0,0,0,0
0,0,0,0
-1.973,0.836,0.574,0.000
-1.961,0.838,0.571,2.000
-1.962,0.847,0.573,7.000
-1.953,0.851,0.571,14.000
-1.947,0.857,0.570,30.000
-1.937,0.860,0.568,50.000
-1.923,0.862,0.565,56.000
-1.918,0.868,0.564,75.000
-1.896,0.866,0.559,70.000
-1.891,0.872,0.558,68.000
-1.885,0.877,0.557,68.000
-1.896,0.890,0.561,73.000
-1.884,0.892,0.559,70.000
-1.881,0.899,0.559,70.000
-1.876,0.905,0.558,73.000
-1.878,0.913,0.560,78.000
-1.870,0.917,0.558,68.000
-1.863,0.922,0.557,66.000
-1.860,0.929,0.557,73.000
-1.855,0.934,0.556,70.000
-1.860,0.945,0.559,73.000
-1.860,0.953,0.560,73.000
-1.871,0.967,0.564,56.000
-1.907,0.994,0.576,35.000
0,0,0,0
-6.713,3.559,2.036,0.000
-6.683,3.574,2.031,0.000
-6.671,3.596,2.031,0.000
-6.655,3.618,2.030,0.000
-6.641,3.643,2.030,0.000
-6.622,3.663,2.028,0.000
-6.633,3.698,2.035,0.000
-6.596,3.708,2.028,0.000
-6.597,3.735,2.031,0.000
-6.584,3.760,2.032,0.000
-6.574,3.783,2.032,0.000
-6.568,3.812,2.035,0.000
-6.530,3.820,2.027,0.000
-6.522,3.848,2.029,0.000
-6.518,3.873,2.032,0.000
-6.514,3.903,2.035,0.000
-6.501,3.925,2.035,0.000
-6.469,3.938,2.029,0.000
-6.462,3.963,2.031,0.000
-6.453,3.989,2.033,0.000
-6.459,4.023,2.039,0.000
-6.431,4.039,2.035,0.000
-6.448,4.078,2.044,0.000
-6.396,4.076,2.032,0.000
-6.382,4.099,2.032,0.000
-6.383,4.132,2.037,0.000
-6.346,4.139,2.030,0.000
-6.364,4.182,2.041,0.000
-6.310,4.180,2.028,0.000
-6.325,4.221,2.037,0.000
-6.309,4.241,2.037,0.000
-6.297,4.265,2.038,0.000
-6.269,4.275,2.033,0.000
-6.249,4.295,2.032,0.000
-6.239,4.320,2.033,0.000
-6.231,4.348,2.036,0.000
-6.219,4.371,2.037,0.000
-6.199,4.391,2.035,0.000
-6.177,4.404,2.033,0.000
-6.183,4.443,2.040,0.000
-6.144,4.447,2.032,0.000
-6.141,4.480,2.037,0.000
-6.133,4.505,2.039,0.000
-6.117,4.526,2.039,0.000
-6.086,4.536,2.034,0.000
-6.069,4.558,2.034,0.000
-6.074,4.590,2.040,0.000
-6.046,4.602,2.036,0.000
-6.039,4.630,2.039,0.000
-6.013,4.645,2.036,0.000
-6.005,4.674,2.039,0.000
-5.988,4.695,2.039,0.000
-5.971,4.717,2.039,0.000
-5.959,4.742,2.041,0.000
-5.934,4.752,2.037,0.000
-5.938,4.790,2.044,0.000
-5.918,4.806,2.043,0.000
-5.889,4.819,2.039,0.000
-5.873,4.839,2.039,0.000
-5.864,4.868,2.042,0.000
-5.839,4.880,2.039,0.000
-5.830,4.909,2.042,0.000
-5.807,4.923,2.040,0.000
-5.785,4.941,2.038,0.000
-5.780,4.967,2.042,0.000
-5.748,4.975,2.037,0.000
-5.739,5.003,2.040,0.000
-5.720,5.022,2.039,0.000
-5.704,5.043,2.040,0.000
-5.681,5.060,2.038,0.000
-5.673,5.086,2.042,0.000
-5.708,5.154,2.061,0.000
-5.659,5.145,2.049,3.000
-5.634,5.161,2.047,3.000
-5.623,5.184,2.049,3.000
-5.611,5.209,2.051,3.000
-5.592,5.229,2.051,3.000
-5.571,5.246,2.050,3.000
-5.532,5.244,2.043,0.000
-7.515,7.174,2.784,0.000
-7.513,7.220,2.792,1.000
-7.480,7.241,2.790,0.000
-7.441,7.251,2.784,0.000
-7.438,7.301,2.793,0.000
-7.430,7.342,2.799,1.000
-7.422,7.388,2.806,0.000
-5.397,5.408,2.047,0.000
-5.377,5.428,2.047,0.000
-5.353,5.436,2.044,0.000
-5.349,5.472,2.050,1.000
-5.336,5.495,2.052,1.000
-5.322,5.519,2.055,1.000
-5.279,5.515,2.046,0.000
-5.263,5.539,2.047,0.000
-5.247,5.559,2.048,0.000
-5.223,5.571,2.046,0.000
-5.206,5.592,2.047,0.000
-5.191,5.617,2.049,0.000
-5.180,5.643,2.052,0.000
-5.152,5.652,2.049,0.000
-5.122,5.659,2.045,0.000
-5.126,5.703,2.055,0.000
-5.083,5.694,2.045,0.000
-5.086,5.738,2.055,0.000
-5.049,5.735,2.047,0.000
-5.035,5.762,2.050,0.000
-5.030,5.792,2.056,0.000
-5.001,5.802,2.052,0.000
-4.958,5.788,2.042,0.000
-4.956,5.830,2.050,0.000
-4.929,5.838,2.047,0.000
-4.922,5.874,2.053,0.000
-4.900,5.887,2.052,0.000
-4.873,5.899,2.050,0.000
-4.864,5.927,2.055,0.000
-4.850,5.953,2.058,0.000
-4.848,5.991,2.065,0.000
-1.900,2.366,0.813,4.000
-1.901,2.383,0.817,4.000
-1.878,2.372,0.811,4.000
-1.855,2.358,0.804,3.000
-1.813,2.322,0.789,1.000
-1.786,2.304,0.781,1.000
-1.754,2.280,0.771,1.000
-1.731,2.266,0.764,1.000
-1.704,2.248,0.756,1.000
-1.697,2.253,0.756,1.000
-1.674,2.239,0.749,1.000
-1.648,2.220,0.741,1.000
-1.617,2.195,0.730,1.000
-1.597,2.181,0.724,1.000
-1.594,2.194,0.727,1.000
-1.581,2.192,0.724,1.000
-1.563,2.183,0.720,1.000
-1.482,2.085,0.685,0.000
-1.424,2.019,0.662,2.000
-1.417,2.024,0.662,1.000
-1.390,2.001,0.653,3.000
-1.375,1.992,0.649,3.000
-1.362,1.989,0.646,7.000
0,0,0,0
-1.336,1.981,0.640,32.000
-1.317,1.966,0.634,33.000
-1.296,1.950,0.627,34.000
-1.293,1.961,0.629,52.000
-1.282,1.959,0.627,81.000
-1.279,1.968,0.629,83.000
-1.254,1.945,0.620,36.000
-1.241,1.940,0.617,36.000
-1.231,1.939,0.615,36.000
-1.215,1.929,0.611,35.000
-1.204,1.925,0.608,36.000
-1.186,1.911,0.603,40.000
-1.172,1.904,0.599,39.000
-1.160,1.899,0.596,40.000
-1.150,1.897,0.594,40.000
-1.138,1.892,0.592,42.000
-1.115,1.870,0.583,42.000
-1.103,1.864,0.580,43.000
-1.095,1.866,0.580,42.000
-1.086,1.864,0.578,46.000
-1.072,1.855,0.574,44.000
-1.054,1.838,0.568,44.000
-1.042,1.832,0.565,44.000
-1.036,1.835,0.565,50.000
-1.028,1.838,0.564,75.000
-1.015,1.829,0.561,61.000
-1.017,1.848,0.565,67.000
-1.008,1.846,0.564,78.000
-1.010,1.865,0.568,81.000
-1.007,1.876,0.570,81.000
-1.003,1.882,0.571,76.000
-0.995,1.884,0.571,78.000
-0.987,1.886,0.570,81.000
-0.987,1.902,0.574,78.000
-0.986,1.917,0.578,73.000
-0.983,1.925,0.579,78.000
-0.977,1.931,0.580,81.000
-0.967,1.927,0.578,76.000
-0.965,1.941,0.581,76.000
-0.964,1.954,0.584,73.000
-0.960,1.965,0.586,68.000
-0.950,1.961,0.584,65.000
-0.943,1.965,0.584,64.000
-0.942,1.978,0.587,56.000
-0.939,1.992,0.590,47.000
-0.938,2.005,0.593,38.000
-0.930,2.007,0.593,27.000
-0.920,2.003,0.591,16.000
-0.913,2.008,0.591,10.000
-0.915,2.031,0.597,7.000
-0.913,2.044,0.600,4.000
-0.908,2.051,0.601,2.000
-0.899,2.051,0.600,1.000
-0.893,2.057,0.601,1.000
-0.887,2.064,0.602,0.000
-0.888,2.085,0.607,0.000
0,0,0,0
0,0,0,0
0,0,0,0
0,0,0,0
0,0,0,0
0,0,0,0
0,0,0,0
0,0,0,0
0,0,0,0
0,0,0,0
0,0,0,0
0,0,0,0
0,0,0,0
0,0,0,0
0,0,0,0
0,0,0,0
0,0,0,0
0,0,0,0
0,0,0,0
0,0,0,0
0,0,0,0
0,0,0,0
0,0,0,0
0,0,0,0
0,0,0,0
0,0,0,0
0,0,0,0
0,0,0,0
0,0,0,0
0,0,0,0
0,0,0,0
0,0,0,0
0,0,0,0
0,0,0,0
0,0,0,0
0,0,0,0
0,0,0,0
0,0,0,0
0,0,0,0
0,0,0,0
0,0,0,0
0,0,0,0
0,0,0,0
0,0,0,0
0,0,0,0
0,0,0,0
0,0,0,0
0,0,0,0
0,0,0,0
0,0,0,0
0,0,0,0
0,0,0,0
0,0,0,0
0,0,0,0
0,0,0,0
0,0,0,0
0,0,0,0
0,0,0,0
0,0,0,0
0,0,0,0
0,0,0,0
0,0,0,0
0,0,0,0
0,0,0,0
0,0,0,0
0,0,0,0
0,0,0,0
0,0,0,0
0,0,0,0
0,0,0,0
0,0,0,0
0,0,0,0
0,0,0,0
0,0,0,0
0,0,0,0
0,0,0,0
0,0,0,0
0,0,0,0
0,0,0,0
0,0,0,0
0,0,0,0
0,0,0,0
0,0,0,0
0,0,0,0
0,0,0,0
0,0,0,0
0,0,0,0
0,0,0,0
0,0,0,0
0,0,0,0
0,0,0,0
0,0,0,0
0,0,0,0
0,0,0,0
0,0,0,0
0,0,0,0
0,0,0,0
0,0,0,0
0,0,0,0
0,0,0,0
0,0,0,0
0,0,0,0
0,0,0,0
0,0,0,0
0,0,0,0
0,0,0,0
0,0,0,0
0,0,0,0
0,0,0,0
0,0,0,0
0,0,0,0
0,0,0,0
0,0,0,0
0,0,0,0
0,0,0,0
0,0,0,0
0,0,0,0
0,0,0,0
0,0,0,0
0,0,0,0
0,0,0,0
0,0,0,0
0,0,0,0
0,0,0,0
0,0,0,0
0,0,0,0
0,0,0,0
0,0,0,0
0,0,0,0
0,0,0,0
0,0,0,0
0,0,0,0
0,0,0,0
0,0,0,0
0,0,0,0
0,0,0,0
0,0,0,0
0,0,0,0
0,0,0,0
0,0,0,0
0,0,0,0
0,0,0,0
0,0,0,0
0,0,0,0
0,0,0,0
0,0,0,0
0,0,0,0
0,0,0,0
0,0,0,0
0,0,0,0
0,0,0,0
0,0,0,0
0,0,0,0
0,0,0,0
0,0,0,0
0,0,0,0
0,0,0,0
0,0,0,0
0,0,0,0
0,0,0,0
0,0,0,0
0,0,0,0
0,0,0,0
0,0,0,0
0,0,0,0
0,0,0,0
0,0,0,0
0,0,0,0
0,0,0,0
0,0,0,0
0,0,0,0
0,0,0,0
0,0,0,0
0,0,0,0
0,0,0,0
0,0,0,0
0,0,0,0
0,0,0,0
0,0,0,0
0,0,0,0
0,0,0,0
0,0,0,0
0,0,0,0
0,0,0,0
0,0,0,0
0,0,0,0
0,0,0,0
0,0,0,0
0,0,0,0
0,0,0,0
0,0,0,0
0,0,0,0
0,0,0,0
0,0,0,0
0,0,0,0
0,0,0,0
0,0,0,0
0,0,0,0
0,0,0,0
0,0,0,0
0,0,0,0
0,0,0,0
0,0,0,0
0,0,0,0
0,0,0,0
0,0,0,0
0,0,0,0
0,0,0,0
2.879,8.639,2.102,0.000
2.903,8.615,2.099,0.000
2.930,8.597,2.097,0.000
2.955,8.577,2.094,0.000
2.980,8.552,2.091,0.000
3.005,8.528,2.088,0.000
3.039,8.531,2.091,0.000
3.063,8.508,2.088,1.000
3.088,8.484,2.084,1.000
3.118,8.469,2.083,2.000
3.141,8.442,2.079,3.000
3.180,8.460,2.087,4.000
3.206,8.440,2.084,5.000
3.234,8.425,2.083,6.000
3.265,8.417,2.084,8.000
3.286,8.390,2.080,8.000
3.321,8.393,2.084,12.000
3.349,8.386,2.085,14.000
3.366,8.344,2.077,12.000
3.403,8.350,2.082,18.000
3.431,8.336,2.081,17.000
3.459,8.321,2.080,23.000
3.492,8.319,2.083,27.000
3.517,8.298,2.081,29.000
3.544,8.281,2.079,33.000
3.573,8.268,2.079,36.000
3.607,8.268,2.083,37.000
3.636,8.260,2.083,21.000
3.666,8.249,2.084,40.000
3.690,8.223,2.081,45.000
3.719,8.210,2.081,44.000
3.753,8.212,2.084,44.000
3.780,8.195,2.083,46.000
3.803,8.171,2.081,44.000
3.829,8.151,2.079,44.000
3.862,8.148,2.082,46.000
3.892,8.138,2.083,43.000
3.920,8.124,2.083,45.000
3.947,8.107,2.082,45.000
3.970,8.087,2.080,45.000
4.000,8.076,2.081,45.000
4.030,8.066,2.082,45.000
4.062,8.059,2.083,45.000
4.085,8.034,2.081,44.000
4.112,8.018,2.080,48.000
4.143,8.009,2.082,46.000
4.170,7.994,2.082,45.000
4.203,7.988,2.084,39.000
4.226,7.965,2.082,45.000
4.250,7.943,2.080,46.000
4.281,7.934,2.081,48.000
4.307,7.922,2.082,45.000
4.337,7.912,2.083,48.000
4.361,7.890,2.081,47.000
4.386,7.870,2.080,45.000
4.416,7.859,2.081,47.000
4.446,7.849,2.083,44.000
4.474,7.835,2.083,48.000
4.497,7.811,2.081,46.000
4.524,7.795,2.081,46.000
4.551,7.779,2.081,45.000
4.579,7.765,2.081,47.000
4.610,7.754,2.083,44.000
4.637,7.738,2.083,45.000
4.661,7.717,2.081,47.000
4.689,7.706,2.083,45.000
4.716,7.690,2.083,44.000
4.747,7.680,2.084,45.000
4.771,7.658,2.083,42.000
4.791,7.632,2.080,47.000
4.821,7.620,2.082,46.000
4.847,7.603,2.082,44.000
4.879,7.594,2.084,42.000
4.898,7.566,2.081,45.000
4.922,7.545,2.080,44.000
4.947,7.525,2.079,46.000
4.975,7.511,2.080,46.000
5.007,7.506,2.083,48.000
5.027,7.478,2.080,48.000
5.053,7.461,2.080,49.000
5.079,7.443,2.080,47.000
5.106,7.427,2.081,46.000
5.138,7.417,2.083,47.000
5.158,7.391,2.081,46.000
5.180,7.368,2.079,48.000
5.205,7.349,2.079,46.000
5.239,7.341,2.082,47.000
5.268,7.328,2.083,46.000
5.288,7.303,2.082,26.000
5.312,7.284,2.081,44.000
5.337,7.265,2.081,49.000
5.362,7.247,2.081,49.000
5.390,7.231,2.082,47.000
5.408,7.203,2.079,49.000
5.434,7.185,2.080,46.000
5.458,7.165,2.079,47.000
5.484,7.147,2.080,45.000
5.515,7.136,2.082,47.000
5.533,7.107,2.079,48.000
5.554,7.083,2.078,45.000
5.587,7.075,2.081,48.000
5.614,7.058,2.082,48.000
5.640,7.040,2.083,45.000
5.659,7.013,2.080,47.000
5.683,6.993,2.080,47.000
5.709,6.975,2.081,46.000
5.734,6.956,2.081,47.000
5.763,6.942,2.083,49.000
5.783,6.916,2.081,47.000
5.809,6.899,2.082,40.000
5.829,6.874,2.081,46.000
5.857,6.858,2.082,48.000
5.881,6.837,2.082,47.000
5.902,6.814,2.081,48.000
5.922,6.789,2.080,45.000
5.942,6.769,2.079,48.000
5.971,6.754,2.081,48.000
6.004,6.741,2.084,47.000
6.017,6.708,2.080,47.000
6.037,6.684,2.079,48.000
6.058,6.660,2.079,49.000
6.083,6.640,2.079,46.000
6.118,6.632,2.083,47.000
6.134,6.603,2.081,46.000
6.156,6.581,2.080,48.000
6.176,6.556,2.079,47.000
6.206,6.542,2.082,46.000
6.227,6.519,2.081,47.000
6.244,6.491,2.079,48.000
6.261,6.467,2.078,46.000
6.291,6.454,2.081,43.000
6.315,6.433,2.081,48.000
6.343,6.417,2.083,48.000
6.356,6.382,2.079,49.000
6.375,6.357,2.079,50.000
6.400,6.338,2.079,47.000
6.425,6.318,2.080,48.000
6.449,6.300,2.081,48.000
6.462,6.269,2.079,48.000
6.482,6.242,2.078,50.000
6.511,6.226,2.080,59.000
6.527,6.201,2.079,62.000
6.555,6.183,2.080,62.000
6.569,6.156,2.079,61.000
6.588,6.131,2.078,51.000
6.613,6.109,2.079,50.000
6.638,6.089,2.079,47.000
6.659,6.065,2.079,49.000
6.673,6.036,2.077,46.000
6.688,6.009,2.076,47.000
6.718,5.994,2.079,48.000
6.743,5.974,2.080,37.000
6.821,6.001,2.097,138.000
6.836,5.972,2.096,123.000
6.861,5.952,2.097,128.000
6.872,5.921,2.094,107.000
6.891,5.896,2.094,59.000
6.921,5.880,2.097,58.000
6.950,5.863,2.099,58.000
6.968,5.836,2.098,62.000
6.979,5.804,2.096,58.000
6.977,5.761,2.089,46.000
6.983,5.726,2.085,38.000
6.900,5.618,2.054,39.000
6.926,5.599,2.056,40.000
7.015,5.630,2.077,11.000
7.047,5.616,2.080,13.000
7.067,5.593,2.081,12.000
7.081,5.564,2.079,12.000
7.097,5.537,2.078,11.000
7.119,5.514,2.079,11.000
7.143,5.493,2.080,11.000
7.173,5.476,2.083,13.000
7.178,5.441,2.079,37.000
7.194,5.413,2.079,50.000
7.204,5.381,2.076,48.000
7.229,5.361,2.078,49.000
7.247,5.335,2.078,49.000
7.256,5.303,2.075,47.000
7.275,5.278,2.075,48.000
7.293,5.252,2.075,48.000
7.317,5.233,2.077,48.000
7.341,5.212,2.079,48.000
7.349,5.180,2.076,48.000
7.364,5.152,2.075,49.000
7.387,5.126,2.076,49.000
7.410,5.104,2.077,46.000
7.427,5.082,2.078,47.000
7.438,5.051,2.076,48.000
7.453,5.023,2.075,49.000
7.474,4.999,2.076,48.000
7.493,4.974,2.076,46.000
7.512,4.949,2.077,48.000
7.526,4.919,2.076,50.000
7.543,4.893,2.076,55.000
7.560,4.867,2.076,55.000
7.545,4.819,2.067,15.000
7.488,4.748,2.047,19.000
7.445,4.685,2.031,55.000
7.412,4.628,2.017,63.000
7.383,4.574,2.005,66.000
7.354,4.519,1.993,68.000
7.326,4.467,1.981,102.000
7.291,4.412,1.967,66.000
7.254,4.355,1.953,111.000
7.229,4.306,1.943,105.000
7.241,4.279,1.942,136.000
7.269,4.261,1.945,136.000
7.281,4.234,1.944,134.000
7.317,4.221,1.950,137.000
7.346,4.204,1.954,135.000
7.382,4.192,1.960,135.000
7.413,4.175,1.964,133.000
7.435,4.153,1.966,133.000
7.463,4.135,1.970,136.000
7.497,4.120,1.975,136.000
7.524,4.100,1.978,135.000
7.566,4.089,1.985,137.000
7.576,4.061,1.985,136.000
7.615,4.047,1.991,137.000
7.646,4.029,1.995,135.000
7.682,4.016,2.001,135.000
7.716,4.000,2.007,131.000
7.741,3.977,2.009,133.000
7.766,3.955,2.012,135.000
7.809,3.943,2.020,137.000
7.831,3.920,2.022,133.000
7.872,3.908,2.029,135.000
7.893,3.884,2.031,135.000
7.917,3.861,2.034,122.000
7.971,3.853,2.044,41.000
8.030,3.851,2.056,32.000
8.052,3.827,2.058,31.000
8.086,3.807,2.063,32.000
8.104,3.781,2.065,37.000
8.149,3.769,2.073,44.000
8.174,3.746,2.076,55.000
8.184,3.716,2.075,55.000
8.189,3.684,2.073,50.000
8.206,3.655,2.074,50.000
8.223,3.628,2.075,50.000
8.238,3.603,2.076,50.000
8.254,3.575,2.077,50.000
8.257,3.540,2.074,48.000
6.287,2.670,1.577,37.000
6.263,2.637,1.569,116.000
6.261,2.610,1.566,19.000
6.246,2.576,1.560,16.000
6.253,2.553,1.559,117.000
6.240,2.525,1.554,105.000
6.216,2.490,1.546,105.000
6.203,2.460,1.540,105.000
6.182,2.426,1.533,108.000
6.163,2.394,1.527,36.000
6.146,2.363,1.520,34.000
6.133,2.333,1.515,37.000
6.119,2.304,1.509,102.000
6.096,2.270,1.502,108.000
6.071,2.236,1.494,105.000
6.047,2.205,1.486,37.000
6.033,2.176,1.481,37.000
6.033,2.153,1.479,37.000
6.015,2.123,1.473,36.000
5.993,2.092,1.465,102.000
5.968,2.060,1.458,108.000
5.958,2.032,1.453,25.000
0,0,0,0
2.856,0.952,0.695,11.000
2.856,0.941,0.694,7.000
2.856,0.929,0.693,7.000
2.862,0.921,0.694,8.000
2.879,0.915,0.697,8.000
2.880,0.905,0.697,18.000
2.866,0.889,0.693,56.000
2.867,0.879,0.692,85.000
2.878,0.872,0.694,116.000
2.894,0.865,0.697,76.000
0,0,0,0
2.891,0.842,0.695,7.000
2.892,0.832,0.695,7.000
2.896,0.822,0.695,7.000
2.907,0.814,0.697,7.000
2.917,0.806,0.699,7.000
2.910,0.793,0.696,7.000
2.923,0.786,0.699,7.000
2.923,0.775,0.698,14.000
2.917,0.762,0.696,42.000
0,0,0,0
2.946,0.748,0.702,6.000
2.945,0.738,0.701,6.000
2.953,0.729,0.702,5.000
2.961,0.720,0.704,5.000
2.975,0.713,0.706,5.000
2.968,0.700,0.704,5.000
2.969,0.689,0.704,6.000
2.975,0.680,0.705,27.000
0,0,0,0
2.985,0.660,0.706,86.000
2.976,0.647,0.703,24.000
2.982,0.638,0.704,6.000
2.996,0.630,0.707,7.000
3.010,0.622,0.709,7.000
3.010,0.611,0.709,6.000
3.008,0.600,0.708,6.000
3.012,0.590,0.709,7.000
0,0,0,0
3.030,0.571,0.712,117.000
3.030,0.560,0.711,102.000
3.028,0.549,0.710,86.000
3.028,0.538,0.710,69.000
5.299,0.923,1.242,111.000
5.283,0.901,1.237,118.000
5.278,0.881,1.235,126.000
5.254,0.859,1.229,126.000
5.234,0.837,1.224,126.000
5.225,0.816,1.221,126.000
5.224,0.798,1.220,124.000
5.212,0.777,1.217,126.000
5.195,0.756,1.212,123.000
5.178,0.735,1.208,122.000
5.169,0.715,1.205,121.000
5.168,0.698,1.204,121.000
5.166,0.679,1.203,122.000
5.142,0.657,1.197,126.000
5.129,0.637,1.193,126.000
5.119,0.619,1.190,126.000
5.110,0.599,1.188,126.000
5.100,0.580,1.185,126.000
5.081,0.560,1.180,127.000
5.071,0.541,1.177,127.000
5.059,0.522,1.174,124.000
5.051,0.503,1.172,127.000
5.045,0.485,1.170,127.000
5.028,0.466,1.166,127.000
5.016,0.447,1.163,124.000
5.010,0.428,1.161,123.000
5.007,0.410,1.160,124.000
4.997,0.392,1.157,126.000
4.977,0.373,1.152,128.000
4.966,0.355,1.149,128.000
4.960,0.337,1.148,129.000
4.953,0.320,1.146,129.000
4.943,0.302,1.143,130.000
4.924,0.284,1.139,130.000
4.906,0.266,1.134,130.000
4.901,0.248,1.133,131.000
4.896,0.231,1.132,130.000
4.891,0.213,1.130,131.000
4.870,0.195,1.125,130.000
4.855,0.178,1.122,127.000
4.852,0.161,1.121,129.000
4.848,0.144,1.120,129.000
4.845,0.127,1.119,128.000
4.824,0.109,1.114,126.000
4.814,0.092,1.112,127.000
4.811,0.077,1.111,128.000
4.803,0.060,1.109,130.000
4.800,0.042,1.108,129.000
4.782,0.025,1.104,131.000
4.767,0.008,1.100,131.000
4.759,-0.008,1.099,132.000
4.755,-0.023,1.098,132.000
4.751,-0.040,1.097,132.000
4.727,-0.056,1.091,131.000
4.715,-0.072,1.089,132.000
4.703,-0.089,1.086,131.000
4.715,-0.106,1.089,132.000
4.699,-0.122,1.085,133.000
4.683,-0.138,1.082,131.000
4.665,-0.154,1.078,130.000
4.668,-0.170,1.078,48.000
4.669,-0.186,1.079,16.000
4.657,-0.202,1.076,16.000
4.654,-0.218,1.076,28.000
4.663,-0.235,1.078,124.000
4.647,-0.251,1.074,123.000
4.642,-0.267,1.073,123.000
4.645,-0.282,1.074,122.000
4.628,-0.297,1.071,122.000
4.616,-0.312,1.068,124.000
4.611,-0.328,1.067,126.000
4.606,-0.344,1.066,124.000
4.601,-0.360,1.065,124.000
4.588,-0.376,1.063,126.000
4.569,-0.390,1.059,128.000
4.565,-0.406,1.058,124.000
4.558,-0.421,1.057,128.000
4.557,-0.436,1.057,128.000
4.536,-0.450,1.052,127.000
4.515,-0.464,1.048,128.000
4.513,-0.480,1.048,128.000
4.511,-0.496,1.048,127.000
4.506,-0.511,1.047,127.000
4.485,-0.524,1.042,127.000
4.471,-0.538,1.040,128.000
4.466,-0.553,1.039,128.000
4.467,-0.569,1.040,128.000
4.458,-0.584,1.038,128.000
4.440,-0.597,1.034,127.000
4.429,-0.611,1.032,126.000
4.423,-0.625,1.031,124.000
4.420,-0.641,1.031,122.000
4.414,-0.656,1.030,126.000
4.398,-0.669,1.027,127.000
4.390,-0.684,1.026,124.000
4.392,-0.698,1.027,124.000
4.382,-0.712,1.025,122.000
4.383,-0.729,1.026,124.000
4.369,-0.742,1.023,124.000
4.355,-0.755,1.020,126.000
4.354,-0.771,1.021,127.000
4.349,-0.786,1.020,126.000
4.348,-0.801,1.021,127.000
4.330,-0.814,1.017,128.000
4.312,-0.826,1.014,129.000
4.313,-0.842,1.015,129.000
4.310,-0.857,1.015,129.000
4.311,-0.872,1.015,128.000
4.285,-0.883,1.010,127.000
4.275,-0.895,1.008,129.000
4.275,-0.910,1.009,130.000
4.264,-0.924,1.007,128.000
4.269,-0.941,1.009,129.000
4.246,-0.951,1.005,127.000
4.224,-0.961,1.000,128.000
4.228,-0.978,1.002,129.000
4.215,-0.990,1.000,122.000
4.181,-0.998,0.992,25.000
4.174,-1.012,0.992,25.000
4.173,-1.026,0.992,30.000
4.173,-1.041,0.993,104.000
4.160,-1.053,0.991,34.000
4.171,-1.072,0.994,34.000
4.165,-1.087,0.994,38.000
7.272,-1.924,1.737,34.000
7.269,-1.952,1.738,105.000
7.265,-1.978,1.738,105.000
7.255,-2.002,1.738,108.000
7.233,-2.023,1.734,114.000
7.214,-2.046,1.731,111.000
7.200,-2.069,1.729,111.000
7.192,-2.094,1.729,111.000
7.189,-2.120,1.730,108.000
7.159,-2.138,1.725,114.000
7.144,-2.161,1.723,111.000
7.135,-2.185,1.723,116.000
7.125,-2.210,1.722,111.000
7.110,-2.232,1.720,114.000
7.087,-2.252,1.717,108.000
7.072,-2.275,1.715,111.000
7.066,-2.300,1.715,116.000
7.056,-2.324,1.715,114.000
7.051,-2.350,1.716,111.000
7.021,-2.367,1.711,108.000
7.005,-2.389,1.709,105.000
7.001,-2.413,1.710,108.000
6.992,-2.438,1.710,114.000
6.976,-2.461,1.708,111.000
6.960,-2.483,1.706,108.000
6.948,-2.505,1.705,33.000
3.953,-1.441,0.971,14.000
3.924,-1.446,0.965,35.000
3.930,-1.464,0.968,44.000
3.917,-1.475,0.966,123.000
3.905,-1.486,0.965,132.000
3.900,-1.499,0.965,132.000
3.898,-1.514,0.965,131.000
3.897,-1.529,0.966,131.000
3.869,-1.534,0.961,132.000
3.861,-1.546,0.960,133.000
3.855,-1.559,0.960,131.000
3.852,-1.573,0.961,130.000
3.855,-1.591,0.963,131.000
3.835,-1.599,0.959,132.000
3.826,-1.611,0.958,132.000
3.824,-1.625,0.959,132.000
3.821,-1.640,0.960,132.000
3.816,-1.653,0.960,131.000
3.800,-1.662,0.957,133.000
3.785,-1.671,0.955,130.000
3.763,-1.677,0.951,36.000
3.776,-1.699,0.956,139.000
3.769,-1.712,0.956,136.000
3.742,-1.714,0.950,135.000
3.736,-1.727,0.950,136.000
3.732,-1.741,0.951,137.000
3.717,-1.750,0.948,135.000
3.725,-1.769,0.952,136.000
3.697,-1.772,0.947,133.000
3.698,-1.789,0.948,135.000
3.699,-1.806,0.950,136.000
3.685,-1.815,0.948,135.000
3.686,-1.831,0.950,136.000
3.659,-1.834,0.945,133.000
3.659,-1.850,0.947,135.000
3.653,-1.862,0.947,136.000
3.639,-1.871,0.945,133.000
3.652,-1.894,0.950,137.000
3.619,-1.893,0.943,132.000
3.623,-1.912,0.946,136.000
3.621,-1.927,0.947,137.000
3.606,-1.934,0.945,134.000
3.618,-1.957,0.950,137.000
3.589,-1.958,0.944,134.000
3.591,-1.975,0.946,137.000
3.575,-1.983,0.944,134.000
3.586,-2.005,0.948,136.000
3.576,-2.015,0.947,134.000
3.565,-2.025,0.947,136.000
3.544,-2.031,0.943,133.000
3.550,-2.051,0.947,136.000
3.540,-2.061,0.946,132.000
3.543,-2.079,0.948,136.000
3.515,-2.080,0.943,134.000
3.511,-2.094,0.944,135.000
3.507,-2.108,0.945,135.000
3.507,-2.125,0.947,136.000
3.503,-2.138,0.947,136.000
3.492,-2.148,0.947,136.000
3.474,-2.155,0.944,134.000
3.480,-2.175,0.947,136.000
3.476,-2.190,0.948,136.000
3.465,-2.200,0.947,130.000
3.457,-2.212,0.947,37.000
3.479,-2.243,0.956,134.000
3.462,-2.248,0.953,132.000
3.454,-2.260,0.953,132.000
3.452,-2.276,0.955,132.000
3.435,-2.282,0.952,132.000
3.423,-2.292,0.951,133.000
3.425,-2.310,0.954,133.000
3.420,-2.324,0.955,132.000
3.415,-2.338,0.956,132.000
3.401,-2.346,0.954,133.000
3.386,-2.353,0.952,133.000
3.390,-2.375,0.956,131.000
3.385,-2.389,0.956,131.000
3.380,-2.402,0.957,132.000
3.366,-2.409,0.956,131.000
3.354,-2.419,0.955,133.000
3.352,-2.435,0.956,132.000
3.350,-2.451,0.958,131.000
3.347,-2.468,0.960,132.000
3.329,-2.472,0.957,132.000
3.321,-2.484,0.957,132.000
3.321,-2.503,0.960,133.000
3.312,-2.514,0.960,132.000
3.313,-2.533,0.963,132.000
3.292,-2.535,0.959,132.000
3.283,-2.546,0.959,132.000
3.283,-2.565,0.962,132.000
3.277,-2.579,0.963,132.000
3.277,-2.598,0.965,132.000
3.259,-2.602,0.963,132.000
3.250,-2.613,0.963,133.000
3.244,-2.627,0.964,131.000
3.241,-2.643,0.965,132.000
3.241,-2.661,0.968,132.000
3.226,-2.668,0.966,132.000
3.213,-2.677,0.965,132.000
3.210,-2.693,0.967,132.000
3.207,-2.708,0.969,131.000
3.202,-2.723,0.970,130.000
3.188,-2.731,0.969,132.000
3.179,-2.742,0.969,132.000
3.173,-2.757,0.970,130.000
3.171,-2.774,0.973,131.000
3.165,-2.790,0.974,129.000
3.150,-2.795,0.972,129.000
3.144,-2.808,0.973,130.000
3.134,-2.819,0.973,130.000
3.135,-2.841,0.977,128.000
3.125,-2.852,0.977,129.000
3.110,-2.857,0.975,130.000
3.100,-2.868,0.975,130.000
3.103,-2.890,0.979,124.000
3.094,-2.903,0.979,129.000
3.087,-2.916,0.980,129.000
3.071,-2.921,0.979,130.000
3.063,-2.935,0.979,128.000
3.060,-2.953,0.982,126.000
3.051,-2.964,0.982,130.000
3.048,-2.982,0.984,132.000
3.037,-2.990,0.984,129.000
3.021,-2.995,0.982,129.000
3.016,-3.012,0.984,129.000
3.015,-3.032,0.987,132.000
3.007,-3.045,0.988,132.000
2.996,-3.055,0.988,132.000
2.981,-3.062,0.987,130.000
2.980,-3.082,0.990,131.000
2.975,-3.098,0.992,131.000
2.967,-3.111,0.992,132.000
2.951,-3.116,0.991,131.000
2.942,-3.129,0.992,131.000
2.938,-3.146,0.994,130.000
2.936,-3.166,0.997,132.000
2.928,-3.180,0.998,132.000
2.917,-3.190,0.998,133.000
2.902,-3.195,0.997,130.000
2.903,-3.218,1.001,132.000
2.897,-3.234,1.002,131.000
2.891,-3.250,1.004,133.000
2.884,-3.266,1.006,126.000
2.868,-3.270,1.004,131.000
2.859,-3.283,1.005,132.000
2.863,-3.311,1.010,131.000
2.856,-3.327,1.012,132.000
2.840,-3.331,1.010,131.000
2.831,-3.344,1.011,132.000
2.826,-3.362,1.014,131.000
2.820,-3.378,1.016,131.000
2.814,-3.396,1.018,129.000
2.800,-3.402,1.017,128.000
2.788,-3.412,1.017,129.000
2.783,-3.431,1.020,129.000
2.774,-3.444,1.021,127.000
2.770,-3.461,1.024,129.000
2.758,-3.471,1.024,127.000
2.747,-3.482,1.024,126.000
2.741,-3.499,1.026,127.000
2.731,-3.512,1.027,128.000
2.724,-3.528,1.029,130.000
2.712,-3.541,1.030,128.000
2.698,-3.548,1.029,129.000
2.695,-3.569,1.033,129.000
2.687,-3.585,1.034,130.000
2.681,-3.601,1.037,131.000
2.669,-3.611,1.037,131.000
2.661,-3.626,1.038,131.000
2.649,-3.637,1.039,128.000
2.647,-3.660,1.043,131.000
2.637,-3.674,1.044,130.000
2.628,-3.688,1.046,131.000
2.614,-3.696,1.045,130.000
2.609,-3.716,1.048,131.000
2.607,-3.741,1.053,131.000
2.602,-3.762,1.056,130.000
2.589,-3.771,1.056,129.000
2.575,-3.780,1.056,129.000
2.569,-3.798,1.059,130.000
2.564,-3.820,1.062,128.000
2.557,-3.839,1.065,127.000
2.544,-3.848,1.065,128.000
2.530,-3.857,1.065,127.000
2.523,-3.875,1.068,127.000
2.516,-3.894,1.070,127.000
2.508,-3.911,1.073,124.000
2.494,-3.920,1.073,126.000
2.478,-3.925,1.072,126.000
2.474,-3.950,1.076,124.000
2.468,-3.970,1.079,129.000
2.459,-3.985,1.081,129.000
2.445,-3.994,1.081,128.000
2.435,-4.009,1.083,128.000
2.428,-4.029,1.086,124.000
2.421,-4.050,1.089,21.000
2.415,-4.071,1.093,15.000
4.024,-6.839,1.832,107.000
4.025,-6.900,1.844,52.000
4.132,-7.140,1.904,24.000
4.094,-7.128,1.898,26.000
4.046,-7.101,1.887,25.000
3.989,-7.060,1.872,25.000
3.939,-7.028,1.860,27.000
3.895,-7.003,1.850,25.000
3.849,-6.977,1.840,25.000
3.808,-6.962,1.832,23.000
3.762,-6.934,1.821,27.000
3.710,-6.895,1.808,23.000
3.665,-6.871,1.798,12.000
3.626,-6.854,1.790,11.000
3.583,-6.830,1.781,13.000
3.538,-6.801,1.770,15.000
3.489,-6.765,1.757,13.000
3.447,-6.743,1.748,13.000
3.415,-6.737,1.744,12.000
2.245,-4.468,1.154,10.000
2.215,-4.446,1.147,35.000
2.201,-4.457,1.148,20.000
2.187,-4.469,1.149,21.000
2.183,-4.497,1.154,21.000
2.170,-4.511,1.156,16.000
2.162,-4.535,1.160,21.000
2.163,-4.578,1.169,117.000
2.147,-4.585,1.169,105.000
2.137,-4.607,1.172,108.000
2.131,-4.635,1.178,108.000
2.115,-4.643,1.178,111.000
2.102,-4.657,1.180,111.000
2.094,-4.682,1.184,108.000
2.085,-4.707,1.189,111.000
2.078,-4.736,1.194,108.000
2.061,-4.743,1.194,105.000
2.050,-4.761,1.197,105.000
2.041,-4.784,1.201,49.000
2.031,-4.809,1.205,46.000
2.019,-4.827,1.208,48.000
2.004,-4.838,1.209,49.000
1.990,-4.852,1.211,48.000
1.981,-4.879,1.216,105.000
1.971,-4.904,1.220,105.000
1.961,-4.927,1.224,102.000
1.945,-4.937,1.225,49.000
1.930,-4.951,1.227,102.000
1.922,-4.980,1.232,102.000
1.914,-5.012,1.239,102.000
1.904,-5.032,1.242,48.000
1.890,-5.050,1.245,48.000
1.873,-5.065,1.247,48.000
1.862,-5.088,1.251,45.000
1.851,-5.108,1.254,44.000
1.842,-5.138,1.260,46.000
1.823,-5.145,1.260,49.000
1.806,-5.155,1.261,46.000
1.797,-5.187,1.267,48.000
1.787,-5.215,1.273,102.000
1.778,-5.247,1.279,48.000
1.764,-5.264,1.282,48.000
1.747,-5.278,1.284,48.000
1.734,-5.301,1.288,111.000
1.716,-5.305,1.287,17.000
1.703,-5.325,1.291,11.000
1.685,-5.333,1.291,19.000
1.672,-5.359,1.296,118.000
1.658,-5.378,1.299,108.000
1.645,-5.403,1.304,111.000
1.631,-5.431,1.309,111.000
1.615,-5.444,1.311,114.000
1.603,-5.470,1.316,116.000
1.588,-5.493,1.320,118.000
1.578,-5.528,1.327,117.000
1.567,-5.564,1.334,105.000
1.548,-5.575,1.336,102.000
1.539,-5.618,1.345,102.000
1.524,-5.642,1.349,49.000
1.511,-5.670,1.355,102.000
1.480,-5.634,1.345,33.000
1.454,-5.612,1.338,31.000
1.432,-5.602,1.335,32.000
1.408,-5.588,1.330,31.000
1.383,-5.576,1.326,31.000
1.357,-5.554,1.320,31.000
1.332,-5.536,1.315,31.000
1.307,-5.514,1.308,30.000
1.286,-5.511,1.307,30.000
1.263,-5.496,1.302,30.000
1.240,-5.490,1.299,29.000
1.216,-5.471,1.294,30.000
1.193,-5.456,1.289,30.000
1.171,-5.447,1.286,32.000
1.149,-5.440,1.284,32.000
1.128,-5.432,1.281,33.000
1.104,-5.409,1.275,33.000
1.081,-5.390,1.269,33.000
1.059,-5.379,1.266,33.000
1.040,-5.378,1.265,32.000
1.019,-5.370,1.262,33.000
0.996,-5.351,1.257,31.000
0.974,-5.333,1.252,31.000
0.955,-5.333,1.251,31.000
0.935,-5.330,1.249,31.000
0.914,-5.320,1.246,31.000
0.890,-5.292,1.239,31.000
0.868,-5.271,1.233,32.000
0.847,-5.258,1.230,31.000
0.826,-5.246,1.226,31.000
0.805,-5.233,1.222,31.000
0.785,-5.220,1.219,32.000
0.762,-5.194,1.212,30.000
0.743,-5.185,1.209,31.000
0.723,-5.180,1.208,30.000
0.705,-5.179,1.207,31.000
0.684,-5.164,1.203,33.000
0.664,-5.151,1.199,32.000
0.645,-5.141,1.196,34.000
0.626,-5.132,1.194,33.000
0.606,-5.123,1.191,34.000
0.586,-5.101,1.185,32.000
0.567,-5.080,1.180,33.000
0.549,-5.074,1.178,33.000
0.528,-5.061,1.175,33.000
0.510,-5.059,1.174,32.000
0.490,-5.033,1.167,32.000
0.472,-5.027,1.166,32.000
0.454,-5.017,1.163,31.000
0.436,-5.009,1.161,31.000
0.417,-5.008,1.160,32.000
0.398,-4.994,1.157,33.000
0.379,-4.974,1.152,35.000
0.361,-4.968,1.150,34.000
0.345,-4.961,1.148,36.000
0.327,-4.955,1.146,35.000
0.308,-4.944,1.144,36.000
0.289,-4.922,1.138,36.000
0.273,-4.919,1.137,37.000
0.256,-4.916,1.136,35.000
0.237,-4.909,1.135,35.000
0.218,-4.886,1.129,34.000
0.201,-4.874,1.126,34.000
0.184,-4.870,1.125,34.000
0.168,-4.863,1.123,34.000
0.151,-4.866,1.124,35.000
0.133,-4.841,1.118,33.000
0.116,-4.830,1.115,32.000
0.098,-4.822,1.114,34.000
0.082,-4.819,1.113,33.000
0.066,-4.819,1.113,34.000
0.049,-4.798,1.108,35.000
0.031,-4.786,1.105,35.000
0.014,-4.778,1.103,36.000
-0.002,-4.771,1.101,37.000
-0.019,-4.767,1.100,36.000
-0.036,-4.755,1.098,37.000
-0.052,-4.731,1.092,36.000
-0.067,-4.735,1.093,36.000
-0.083,-4.735,1.093,37.000
-0.100,-4.730,1.092,40.000
-0.116,-4.707,1.087,36.000
-0.133,-4.698,1.085,37.000
-0.149,-4.686,1.082,36.000
-0.165,-4.682,1.082,35.000
-0.181,-4.677,1.081,34.000
-0.197,-4.661,1.077,34.000
-0.213,-4.647,1.074,34.000
-0.228,-4.638,1.072,33.000
-0.244,-4.634,1.071,33.000
-0.259,-4.625,1.069,32.000
-0.275,-4.608,1.066,32.000
-0.290,-4.602,1.064,34.000
-0.306,-4.593,1.063,35.000
-0.321,-4.588,1.062,35.000
-0.337,-4.587,1.062,34.000
-0.351,-4.562,1.056,35.000
-0.366,-4.549,1.054,36.000
-0.383,-4.548,1.054,37.000
-0.399,-4.550,1.055,37.000
-0.414,-4.537,1.052,37.000
-0.428,-4.520,1.048,37.000
-0.336,-3.421,0.794,11.000
0,0,0,0
-0.359,-3.407,0.791,62.000
-0.371,-3.408,0.791,72.000
-0.380,-3.391,0.788,69.000
-0.392,-3.386,0.787,74.000
-0.403,-3.377,0.785,74.000
-0.415,-3.379,0.786,74.000
-0.427,-3.378,0.786,72.000
-0.435,-3.353,0.781,74.000
-0.446,-3.346,0.779,105.000
-0.458,-3.342,0.779,102.000
-0.469,-3.337,0.778,102.000
-0.481,-3.339,0.779,74.000
-0.490,-3.322,0.775,74.000
-0.500,-3.305,0.772,72.000
-0.512,-3.309,0.773,105.000
-0.524,-3.309,0.773,74.000
-0.534,-3.299,0.772,69.000
-0.545,-3.290,0.770,74.000
-0.554,-3.276,0.767,69.000
-0.566,-3.274,0.767,72.000
-0.578,-3.280,0.769,74.000
-0.588,-3.270,0.767,69.000
-0.597,-3.257,0.764,74.000
-0.608,-3.251,0.763,72.000
-0.617,-3.239,0.761,68.000
-0.630,-3.246,0.763,69.000
-0.641,-3.242,0.763,68.000
-0.650,-3.229,0.760,68.000
-0.660,-3.219,0.759,68.000
-0.672,-3.220,0.759,66.000
-0.683,-3.218,0.759,68.000
-0.695,-3.217,0.760,72.000
-0.703,-3.202,0.757,66.000
-0.712,-3.191,0.755,68.000
-0.723,-3.189,0.755,68.000
-0.734,-3.186,0.755,68.000
