"X","Y","Z","Intensity"
3.198,-2.707,0.967,132.000
3.194,-2.723,0.969,131.000
3.184,-2.735,0.969,131.000
3.182,-2.752,0.971,130.000
3.176,-2.766,0.972,130.000
3.163,-2.774,0.971,130.000
3.154,-2.785,0.971,130.000
3.147,-2.799,0.972,130.000
3.146,-2.817,0.975,129.000
3.133,-2.826,0.974,129.000
3.127,-2.838,0.975,130.000
3.120,-2.852,0.976,129.000
3.112,-2.866,0.977,129.000
3.110,-2.885,0.979,130.000
3.101,-2.895,0.979,129.000
3.088,-2.904,0.979,128.000
3.078,-2.914,0.979,128.000
3.073,-2.930,0.980,129.000
3.068,-2.944,0.982,131.000
3.062,-2.959,0.983,128.000
3.043,-2.961,0.980,130.000
3.036,-2.975,0.981,130.000
3.030,-2.991,0.983,130.000
3.027,-3.009,0.985,131.000
3.018,-3.021,0.986,130.000
3.008,-3.033,0.986,132.000
2.996,-3.042,0.986,130.000
2.988,-3.055,0.987,130.000
2.985,-3.072,0.989,132.000
2.982,-3.091,0.992,132.000
2.968,-3.099,0.991,132.000
2.958,-3.109,0.991,132.000
2.947,-3.119,0.991,131.000
2.944,-3.138,0.993,132.000
2.944,-3.159,0.997,132.000
2.928,-3.164,0.995,132.000
2.917,-3.174,0.995,131.000
2.911,-3.190,0.997,132.000
2.908,-3.208,1.000,133.000
2.907,-3.230,1.003,133.000
2.891,-3.234,1.001,133.000
2.877,-3.241,1.001,132.000
2.875,-3.262,1.004,128.000
2.872,-3.282,1.007,133.000
2.866,-3.298,1.009,132.000
2.852,-3.305,1.008,131.000
2.840,-3.315,1.008,131.000
2.839,-3.337,1.011,132.000
2.835,-3.355,1.014,131.000
2.827,-3.369,1.015,130.000
2.811,-3.375,1.014,131.000
2.803,-3.389,1.015,130.000
2.796,-3.405,1.017,129.000
2.789,-3.421,1.019,128.000
2.785,-3.439,1.022,129.000
2.771,-3.446,1.021,127.000
2.761,-3.459,1.022,128.000
2.754,-3.474,1.024,127.000
2.749,-3.493,1.026,128.000
2.741,-3.509,1.028,128.000
2.727,-3.515,1.027,129.000
2.715,-3.525,1.027,129.000
2.709,-3.544,1.030,130.000
2.702,-3.559,1.032,130.000
2.696,-3.578,1.034,130.000
2.687,-3.592,1.036,131.000
2.669,-3.594,1.033,129.000
2.664,-3.614,1.037,132.000
2.658,-3.631,1.039,130.000
2.655,-3.654,1.043,132.000
2.642,-3.664,1.043,131.000
2.630,-3.673,1.043,131.000
2.626,-3.695,1.046,131.000
2.615,-3.707,1.047,131.000
2.616,-3.735,1.053,132.000
2.598,-3.738,1.051,131.000
2.588,-3.752,1.052,130.000
2.583,-3.772,1.055,131.000
2.576,-3.789,1.058,130.000
2.573,-3.814,1.062,129.000
2.558,-3.820,1.061,129.000
2.545,-3.829,1.061,129.000
2.540,-3.850,1.065,128.000
2.533,-3.869,1.068,127.000
2.524,-3.886,1.070,124.000
2.510,-3.895,1.070,126.000
2.497,-3.904,1.070,126.000
2.487,-3.919,1.072,126.000
2.483,-3.943,1.076,127.000
2.475,-3.961,1.078,129.000
2.460,-3.966,1.078,130.000
2.448,-3.978,1.078,128.000
2.445,-4.003,1.083,130.000
2.436,-4.020,1.085,131.000
2.431,-4.044,1.089,46.000
2.415,-4.050,1.089,22.000
4.038,-6.822,1.830,46.000
4.026,-6.856,1.836,63.000
4.134,-7.100,1.897,27.000
4.130,-7.150,1.906,28.000
4.075,-7.109,1.892,27.000
4.022,-7.074,1.879,23.000
3.977,-7.053,1.869,25.000
3.933,-7.031,1.860,26.000
3.889,-7.006,1.850,27.000
3.840,-6.976,1.838,27.000
3.788,-6.944,1.826,25.000
3.744,-6.921,1.817,26.000
3.709,-6.909,1.810,26.000
3.663,-6.881,1.800,25.000
3.612,-6.846,1.787,12.000
3.569,-6.820,1.777,14.000
3.526,-6.794,1.767,15.000
3.483,-6.768,1.757,14.000
3.444,-6.753,1.750,14.000
3.404,-6.732,1.742,8.000
2.226,-4.440,1.147,18.000
2.215,-4.457,1.149,28.000
2.195,-4.454,1.146,21.000
2.185,-4.472,1.149,21.000
2.174,-4.492,1.152,21.000
2.163,-4.508,1.154,16.000
2.163,-4.547,1.163,35.000
2.163,-4.588,1.171,104.000
2.151,-4.605,1.173,111.000
2.132,-4.605,1.172,111.000
2.120,-4.623,1.174,114.000
2.113,-4.652,1.180,114.000
2.102,-4.670,1.182,111.000
2.095,-4.699,1.188,108.000
2.079,-4.706,1.188,114.000
2.069,-4.727,1.191,111.000
2.058,-4.747,1.194,102.000
2.051,-4.776,1.200,49.000
2.039,-4.793,1.203,49.000
2.024,-4.804,1.203,49.000
2.010,-4.816,1.205,45.000
2.001,-4.843,1.210,48.000
1.990,-4.864,1.213,102.000
1.979,-4.886,1.217,49.000
1.966,-4.902,1.219,105.000
1.951,-4.916,1.221,105.000
1.941,-4.941,1.226,108.000
1.935,-4.977,1.233,111.000
1.924,-4.996,1.236,102.000
1.909,-5.010,1.238,102.000
1.895,-5.023,1.239,102.000
1.886,-5.052,1.245,48.000
1.873,-5.073,1.248,46.000
1.862,-5.098,1.253,46.000
1.845,-5.106,1.253,45.000
1.832,-5.125,1.257,48.000
1.819,-5.146,1.260,48.000
1.809,-5.175,1.266,49.000
1.803,-5.212,1.273,108.000
1.784,-5.216,1.273,102.000
1.770,-5.240,1.277,105.000
1.758,-5.266,1.282,49.000
1.749,-5.294,1.287,48.000
1.736,-5.317,1.291,108.000
1.707,-5.291,1.284,18.000
1.693,-5.312,1.287,11.000
1.682,-5.340,1.293,35.000
1.669,-5.366,1.298,117.000
1.657,-5.391,1.302,108.000
1.641,-5.404,1.304,111.000
1.625,-5.421,1.307,114.000
1.613,-5.449,1.312,114.000
1.602,-5.481,1.318,114.000
1.590,-5.512,1.325,114.000
1.574,-5.529,1.327,111.000
1.558,-5.546,1.330,111.000
1.548,-5.587,1.338,49.000
1.540,-5.634,1.348,102.000
1.527,-5.663,1.354,105.000
1.503,-5.654,1.351,31.000
1.471,-5.616,1.340,33.000
1.449,-5.611,1.338,31.000
1.429,-5.609,1.336,31.000
1.404,-5.593,1.331,31.000
1.377,-5.563,1.323,31.000
1.350,-5.536,1.316,30.000
1.327,-5.533,1.314,31.000
1.304,-5.519,1.309,30.000
1.282,-5.508,1.306,30.000
1.258,-5.494,1.301,30.000
1.234,-5.475,1.296,30.000
1.213,-5.472,1.294,30.000
1.191,-5.465,1.291,30.000
1.170,-5.459,1.289,31.000
1.145,-5.433,1.282,32.000
1.120,-5.406,1.275,32.000
1.100,-5.406,1.274,32.000
1.076,-5.387,1.268,33.000
1.058,-5.383,1.266,33.000
1.036,-5.371,1.263,32.000
1.013,-5.356,1.258,31.000
0.992,-5.350,1.256,31.000
0.972,-5.345,1.254,30.000
0.952,-5.337,1.252,31.000
0.929,-5.313,1.245,31.000
0.909,-5.307,1.243,33.000
0.886,-5.287,1.238,32.000
0.865,-5.275,1.234,32.000
0.844,-5.261,1.230,31.000
0.821,-5.235,1.223,32.000
0.800,-5.216,1.218,31.000
0.781,-5.213,1.217,32.000
0.760,-5.204,1.214,31.000
0.740,-5.195,1.212,31.000
0.719,-5.177,1.207,31.000
0.699,-5.162,1.203,31.000
0.681,-5.160,1.202,32.000
0.662,-5.155,1.200,33.000
0.642,-5.150,1.198,33.000
0.621,-5.125,1.192,33.000
0.601,-5.096,1.185,33.000
0.582,-5.086,1.182,34.000
0.565,-5.092,1.183,34.000
0.545,-5.075,1.178,34.000
0.525,-5.057,1.174,33.000
0.506,-5.039,1.169,34.000
0.486,-5.034,1.167,33.000
0.469,-5.031,1.167,33.000
0.450,-5.021,1.164,33.000
0.431,-5.007,1.160,33.000
0.413,-4.997,1.158,33.000
0.395,-4.987,1.155,34.000
0.376,-4.982,1.154,34.000
0.359,-4.980,1.153,34.000
0.341,-4.954,1.146,36.000
0.323,-4.939,1.143,35.000
0.305,-4.937,1.142,36.000
0.287,-4.930,1.140,36.000
0.270,-4.927,1.139,37.000
0.252,-4.908,1.135,35.000
0.234,-4.897,1.132,36.000
0.216,-4.887,1.129,37.000
0.200,-4.883,1.128,36.000
0.182,-4.876,1.127,34.000
0.165,-4.859,1.123,34.000
0.147,-4.844,1.119,32.000
0.130,-4.837,1.117,33.000
0.113,-4.837,1.117,33.000
0.097,-4.830,1.115,32.000
0.080,-4.813,1.111,34.000
0.062,-4.801,1.109,34.000
0.045,-4.794,1.107,36.000
0.029,-4.782,1.104,36.000
0.013,-4.782,1.104,37.000
-0.004,-4.767,1.100,37.000
-0.021,-4.751,1.097,37.000
-0.038,-4.757,1.098,38.000
-0.055,-4.739,1.094,37.000
-0.071,-4.749,1.096,38.000
-0.087,-4.723,1.091,37.000
-0.103,-4.709,1.087,38.000
-0.119,-4.703,1.086,37.000
-0.135,-4.702,1.086,36.000
-0.152,-4.698,1.085,36.000
-0.167,-4.678,1.081,35.000
-0.182,-4.666,1.078,35.000
-0.199,-4.659,1.077,34.000
-0.216,-4.656,1.076,34.000
-0.231,-4.646,1.074,33.000
-0.247,-4.629,1.070,33.000
-0.261,-4.613,1.067,34.000
-0.277,-4.616,1.068,34.000
-0.293,-4.605,1.065,34.000
-0.309,-4.602,1.065,34.000
-0.324,-4.584,1.061,35.000
-0.339,-4.571,1.058,36.000
-0.354,-4.562,1.056,36.000
-0.370,-4.557,1.055,35.000
-0.386,-4.555,1.055,37.000
-0.401,-4.542,1.053,40.000
-0.414,-4.514,1.046,38.000
-0.431,-4.524,1.049,37.000
-0.338,-3.427,0.795,21.000
-0.348,-3.406,0.790,102.000
-0.360,-3.401,0.790,64.000
-0.371,-3.396,0.789,72.000
-0.383,-3.391,0.788,74.000
-0.395,-3.389,0.788,72.000
-0.406,-3.396,0.790,74.000
-0.415,-3.367,0.783,74.000
-0.427,-3.358,0.781,72.000
-0.438,-3.353,0.781,102.000
-0.450,-3.351,0.781,74.000
-0.461,-3.349,0.781,102.000
-0.470,-3.336,0.778,69.000
-0.480,-3.323,0.775,74.000
-0.492,-3.321,0.775,74.000
-0.503,-3.314,0.774,66.000
-0.514,-3.310,0.773,74.000
-0.525,-3.301,0.772,74.000
-0.534,-3.291,0.770,74.000
-0.546,-3.289,0.770,72.000
-0.558,-3.287,0.770,72.000
-0.569,-3.282,0.769,74.000
-0.578,-3.272,0.767,74.000
-0.587,-3.258,0.764,74.000
-0.599,-3.256,0.764,74.000
-0.611,-3.258,0.765,69.000
-0.622,-3.256,0.765,69.000
-0.630,-3.236,0.761,68.000
-0.640,-3.227,0.759,66.000
-0.652,-3.228,0.760,68.000
-0.663,-3.224,0.760,69.000
-0.674,-3.222,0.760,72.000
-0.684,-3.212,0.758,69.000
-0.693,-3.200,0.756,68.000
-0.705,-3.201,0.757,66.000
-0.716,-3.199,0.757,66.000
-0.727,-3.196,0.757,66.000
-0.737,-3.188,0.755,69.000
-0.746,-3.178,0.754,72.000
-0.757,-3.171,0.753,69.000
-0.768,-3.172,0.754,69.000
-0.779,-3.168,0.753,68.000
-0.789,-3.163,0.753,72.000
-0.797,-3.149,0.750,74.000
-0.808,-3.146,0.750,72.000
-0.819,-3.144,0.750,74.000
-0.831,-3.145,0.751,72.000
-0.839,-3.130,0.748,86.000
-0.847,-3.116,0.745,102.000
-0.859,-3.117,0.746,86.000
-0.870,-3.118,0.747,86.000
-0.882,-3.118,0.748,102.000
-0.888,-3.098,0.744,105.000
-0.895,-3.082,0.741,102.000
-0.907,-3.083,0.742,102.000
-0.919,-3.083,0.743,102.000
-0.931,-3.084,0.744,102.000
-0.937,-3.066,0.740,102.000
-0.944,-3.051,0.737,102.000
-0.956,-3.050,0.738,105.000
-0.968,-3.052,0.739,102.000
-0.980,-3.054,0.741,105.000
-0.985,-3.036,0.737,105.000
-0.995,-3.029,0.736,108.000
-1.005,-3.025,0.736,108.000
-1.017,-3.026,0.737,108.000
-1.029,-3.026,0.738,108.000
-1.035,-3.007,0.734,105.000
-1.043,-2.996,0.732,105.000
-1.056,-3.000,0.734,105.000
-1.064,-2.993,0.733,105.000
-1.075,-2.991,0.734,102.000
-1.082,-2.978,0.732,108.000
-1.089,-2.965,0.729,102.000
-1.102,-2.967,0.731,105.000
-1.112,-2.963,0.731,108.000
-1.126,-2.970,0.733,108.000
-1.130,-2.950,0.729,102.000
-1.140,-2.944,0.729,69.000
-1.175,-3.003,0.745,28.000
-1.218,-3.081,0.765,25.000
-1.262,-3.160,0.786,29.000
-1.306,-3.239,0.806,25.000
-1.346,-3.305,0.824,31.000
-1.396,-3.392,0.847,25.000
-1.447,-3.480,0.870,28.000
-1.504,-3.585,0.898,26.000
-1.558,-3.678,0.922,24.000
-1.618,-3.784,0.950,117.000
-1.636,-3.789,0.953,136.000
-1.643,-3.769,0.949,135.000
-1.654,-3.760,0.948,131.000
-1.664,-3.747,0.947,133.000
-1.674,-3.734,0.945,132.000
-1.689,-3.732,0.946,131.000
-1.705,-3.733,0.947,132.000
-1.720,-3.731,0.948,133.000
-1.727,-3.712,0.945,130.000
-1.738,-3.701,0.944,131.000
-1.750,-3.695,0.944,131.000
-1.765,-3.696,0.946,132.000
-1.780,-3.694,0.947,132.000
-1.788,-3.677,0.944,131.000
-1.797,-3.664,0.942,131.000
-1.811,-3.659,0.943,130.000
-1.828,-3.661,0.945,132.000
-1.839,-3.652,0.944,132.000
-1.849,-3.640,0.943,130.000
-1.861,-3.632,0.942,132.000
-1.873,-3.625,0.942,132.000
-1.887,-3.622,0.943,133.000
-1.904,-3.623,0.945,133.000
-1.911,-3.606,0.942,131.000
-1.921,-3.594,0.941,130.000
-1.938,-3.596,0.943,132.000
-1.950,-3.589,0.943,131.000
-1.963,-3.582,0.943,132.000
-1.971,-3.568,0.941,133.000
-1.982,-3.558,0.940,131.000
-1.994,-3.551,0.940,132.000
-2.013,-3.554,0.943,132.000
-2.027,-3.551,0.944,132.000
-2.033,-3.534,0.941,133.000
-2.043,-3.523,0.940,131.000
-2.057,-3.520,0.941,132.000
-2.072,-3.516,0.942,133.000
-2.086,-3.512,0.943,133.000
-2.094,-3.498,0.941,132.000
-2.104,-3.487,0.940,132.000
-2.119,-3.483,0.941,132.000
-2.131,-3.476,0.941,133.000
-2.147,-3.475,0.943,133.000
-2.155,-3.461,0.941,133.000
-2.163,-3.447,0.939,132.000
-2.179,-3.446,0.941,132.000
-2.193,-3.441,0.942,133.000
-2.211,-3.444,0.945,135.000
-2.217,-3.426,0.942,132.000
-2.228,-3.418,0.942,133.000
-2.240,-3.411,0.942,133.000
-2.257,-3.409,0.944,132.000
-2.271,-3.405,0.945,132.000
-2.276,-3.387,0.942,132.000
-2.288,-3.379,0.942,132.000
-2.302,-3.374,0.943,135.000
-2.316,-3.369,0.944,132.000
-2.327,-3.361,0.944,132.000
-2.337,-3.350,0.943,133.000
-2.349,-3.342,0.943,135.000
-2.363,-3.337,0.944,135.000
-2.378,-3.336,0.946,133.000
-2.394,-3.334,0.947,133.000
-2.399,-3.315,0.945,133.000
-2.413,-3.310,0.946,135.000
-2.424,-3.302,0.946,133.000
-2.441,-3.299,0.947,133.000
-2.454,-3.295,0.948,132.000
-2.461,-3.280,0.947,133.000
-2.472,-3.271,0.947,133.000
-2.486,-3.266,0.947,133.000
-2.503,-3.263,0.949,135.000
-2.521,-3.263,0.952,136.000
-2.525,-3.245,0.949,136.000
-2.534,-3.233,0.948,133.000
-2.550,-3.230,0.950,135.000
-2.566,-3.228,0.952,135.000
-2.582,-3.225,0.954,133.000
-2.588,-3.210,0.952,135.000
-2.596,-3.198,0.951,135.000
-2.616,-3.200,0.954,137.000
-2.626,-3.189,0.954,133.000
-2.631,-3.173,0.952,128.000
-2.640,-3.160,0.951,45.000
0,0,0,0
0,0,0,0
-5.577,-6.536,1.984,0.000
-5.603,-6.519,1.985,0.000
-5.622,-6.495,1.983,0.000
-5.655,-6.489,1.987,0.000
-5.654,-6.443,1.979,0.000
-5.678,-6.425,1.980,0.000
-5.710,-6.415,1.983,0.000
-5.728,-6.393,1.982,0.000
-5.957,-6.602,2.053,2.000
-5.986,-6.583,2.054,3.000
-6.025,-6.580,2.060,3.000
-6.053,-6.564,2.061,2.000
-6.065,-6.532,2.058,3.000
-6.089,-6.515,2.059,2.000
-6.127,-6.511,2.064,3.000
-6.150,-6.487,2.064,0.000
-6.110,-6.401,2.043,0.000
-6.058,-6.306,2.019,2.000
-6.082,-6.287,2.020,2.000
-6.097,-6.257,2.017,2.000
-6.130,-6.247,2.021,1.000
-6.168,-6.242,2.026,0.000
-21.349,-21.453,6.987,5.000
-21.424,-21.379,6.987,5.000
-21.498,-21.304,6.987,5.000
-21.572,-21.229,6.987,5.000
-21.646,-21.153,6.987,5.000
-21.716,-21.081,6.987,5.000
-5.414,-5.219,1.736,0.000
-5.410,-5.179,1.729,0.000
-5.337,-5.074,1.700,0.000
-5.304,-5.007,1.684,0.000
-5.256,-4.927,1.663,1.000
-5.262,-4.898,1.660,1.000
-5.288,-4.888,1.662,1.000
-5.316,-4.880,1.666,0.000
-5.337,-4.865,1.667,0.000
-5.341,-4.835,1.663,0.000
-22.365,-20.102,6.942,5.000
-22.396,-19.996,6.932,5.000
-22.428,-19.885,6.920,5.000
-22.494,-19.810,6.920,5.000
-22.563,-19.731,6.920,5.000
-22.602,-19.627,6.911,5.000
-22.626,-19.510,6.897,5.000
-22.698,-19.427,6.897,5.000
-22.765,-19.347,6.897,5.000
-22.829,-19.272,6.897,5.000
-22.896,-19.192,6.897,5.000
-4.645,-3.865,1.395,0.000
-4.617,-3.814,1.383,0.000
-4.609,-3.781,1.376,0.000
-4.535,-3.693,1.350,0.000
-4.510,-3.649,1.339,0.000
-4.502,-3.616,1.333,0.000
-4.461,-3.558,1.317,0.000
-4.458,-3.531,1.313,2.000
-4.477,-3.519,1.315,3.000
-4.486,-3.501,1.314,3.000
-4.509,-3.494,1.317,1.000
-4.541,-3.493,1.323,1.000
-4.559,-3.482,1.325,1.000
-4.576,-3.470,1.326,0.000
-23.714,-17.850,6.852,5.000
-23.776,-17.767,6.852,5.000
-23.813,-17.679,6.847,5.000
-23.893,-17.609,6.852,5.000
-23.933,-17.503,6.845,5.000
-23.971,-17.403,6.839,5.000
-24.076,-17.358,6.852,5.000
-24.105,-17.251,6.843,5.000
-24.168,-17.163,6.843,5.000
-24.212,-17.067,6.839,5.000
-24.252,-16.969,6.834,5.000
-24.311,-16.884,6.834,5.000
-24.406,-16.824,6.843,5.000
-4.140,-2.832,1.158,3.000
-4.116,-2.795,1.149,4.000
-4.085,-2.753,1.137,15.000
-4.106,-2.747,1.141,26.000
-4.130,-2.743,1.145,33.000
-4.152,-2.738,1.148,29.000
0,0,0,0
0,0,0,0
-4.204,-2.708,1.154,1.000
-4.243,-2.712,1.163,0.000
-4.267,-2.707,1.167,0.000
-2.807,-1.767,0.766,5.000
0,0,0,0
-2.796,-1.733,0.759,36.000
-2.785,-1.713,0.755,36.000
-2.778,-1.696,0.751,37.000
-2.757,-1.670,0.744,45.000
-2.739,-1.646,0.738,46.000
-2.732,-1.628,0.734,45.000
-2.727,-1.613,0.732,45.000
-2.720,-1.596,0.728,46.000
-2.695,-1.568,0.720,43.000
-2.683,-1.549,0.715,42.000
-2.680,-1.535,0.713,40.000
-2.674,-1.519,0.710,42.000
-2.665,-1.503,0.706,44.000
-2.646,-1.480,0.700,44.000
-2.628,-1.457,0.694,46.000
-2.626,-1.444,0.692,46.000
-2.617,-1.428,0.688,47.000
-2.615,-1.415,0.687,47.000
-2.597,-1.393,0.680,44.000
-2.584,-1.375,0.676,43.000
-2.575,-1.359,0.672,50.000
-2.566,-1.343,0.669,50.000
-2.570,-1.334,0.669,50.000
-2.554,-1.314,0.663,52.000
-2.534,-1.293,0.657,53.000
-2.525,-1.277,0.653,53.000
-2.523,-1.264,0.651,54.000
-2.515,-1.249,0.648,55.000
-2.498,-1.231,0.643,54.000
-2.488,-1.215,0.639,55.000
-2.489,-1.204,0.638,55.000
-2.478,-1.188,0.634,55.000
-2.478,-1.178,0.633,54.000
-2.458,-1.158,0.627,53.000
-2.447,-1.143,0.624,53.000
-2.441,-1.129,0.621,51.000
-2.438,-1.117,0.619,54.000
-2.438,-1.107,0.618,52.000
-2.424,-1.090,0.614,53.000
-2.408,-1.073,0.609,55.000
-2.410,-1.065,0.608,56.000
-2.396,-1.049,0.604,54.000
-2.405,-1.043,0.605,59.000
-2.382,-1.023,0.598,59.000
-2.371,-1.008,0.595,56.000
-2.369,-0.998,0.593,25.000
-2.383,-0.994,0.596,12.000
-2.396,-0.989,0.598,6.000
-3.992,-1.632,0.996,1.000
-3.990,-1.615,0.994,1.000
-4.021,-1.612,1.000,1.000
-4.039,-1.603,1.003,1.000
-4.050,-1.591,1.005,1.000
-4.063,-1.579,1.006,1.000
-4.081,-1.571,1.010,1.000
-4.098,-1.561,1.012,1.000
-4.132,-1.557,1.019,1.000
-4.132,-1.540,1.018,0.000
-2.274,-0.839,0.560,6.000
-2.263,-0.826,0.556,20.000
-2.258,-0.815,0.554,50.000
-2.263,-0.808,0.555,61.000
-2.256,-0.797,0.552,60.000
-2.237,-0.781,0.547,58.000
-2.225,-0.768,0.543,58.000
-2.224,-0.759,0.543,58.000
-2.219,-0.750,0.541,59.000
-2.225,-0.743,0.542,56.000
-2.213,-0.730,0.538,56.000
-2.201,-0.717,0.534,57.000
-2.200,-0.708,0.534,57.000
-2.199,-0.700,0.533,60.000
-2.194,-0.690,0.531,60.000
-2.189,-0.680,0.529,60.000
-2.176,-0.668,0.525,61.000
-2.171,-0.658,0.524,60.000
-2.173,-0.650,0.524,61.000
-2.168,-0.641,0.522,62.000
-2.155,-0.629,0.518,62.000
-2.142,-0.617,0.515,62.000
-2.139,-0.608,0.513,63.000
-2.141,-0.601,0.513,65.000
-2.143,-0.593,0.513,66.000
-2.117,-0.578,0.507,62.000
-2.113,-0.569,0.505,65.000
-2.111,-0.561,0.504,65.000
-2.108,-0.552,0.503,61.000
-2.104,-0.543,0.502,63.000
-2.092,-0.533,0.498,62.000
-2.087,-0.523,0.497,62.000
-2.077,-0.513,0.494,62.000
-2.088,-0.508,0.496,63.000
-2.079,-0.499,0.494,63.000
-2.071,-0.489,0.491,62.000
-2.061,-0.479,0.489,61.000
-2.063,-0.472,0.489,59.000
-2.061,-0.464,0.488,61.000
-2.062,-0.457,0.488,60.000
-2.045,-0.445,0.483,62.000
-2.045,-0.438,0.483,65.000
-2.042,-0.430,0.482,65.000
-2.040,-0.422,0.481,63.000
-2.041,-0.415,0.481,63.000
-2.028,-0.405,0.477,65.000
-2.023,-0.397,0.476,69.000
-2.011,-0.387,0.473,66.000
-2.009,-0.380,0.472,68.000
-2.014,-0.373,0.473,65.000
-2.000,-0.363,0.469,68.000
-1.984,-0.353,0.465,62.000
-1.987,-0.347,0.466,52.000
-1.988,-0.340,0.466,30.000
-2.001,-0.335,0.468,11.000
-1.979,-0.324,0.463,8.000
-1.990,-0.319,0.465,6.000
-1.985,-0.311,0.464,3.000
-1.967,-0.302,0.459,3.000
-1.968,-0.295,0.459,1.000
-1.984,-0.290,0.463,1.000
0,0,0,0
0,0,0,0
0,0,0,0
0,0,0,0
0,0,0,0
0,0,0,0
0,0,0,0
0,0,0,0
0,0,0,0
0,0,0,0
0,0,0,0
0,0,0,0
0,0,0,0
0,0,0,0
0,0,0,0
0,0,0,0
0,0,0,0
0,0,0,0
0,0,0,0
0,0,0,0
0,0,0,0
0,0,0,0
0,0,0,0
0,0,0,0
0,0,0,0
0,0,0,0
0,0,0,0
0,0,0,0
0,0,0,0
0,0,0,0
0,0,0,0
0,0,0,0
0,0,0,0
0,0,0,0
0,0,0,0
0,0,0,0
0,0,0,0
0,0,0,0
0,0,0,0
0,0,0,0
0,0,0,0
0,0,0,0
0,0,0,0
0,0,0,0
0,0,0,0
0,0,0,0
0,0,0,0
0,0,0,0
0,0,0,0
0,0,0,0
0,0,0,0
0,0,0,0
0,0,0,0
0,0,0,0
0,0,0,0
0,0,0,0
0,0,0,0
0,0,0,0
0,0,0,0
0,0,0,0
0,0,0,0
0,0,0,0
0,0,0,0
0,0,0,0
0,0,0,0
0,0,0,0
0,0,0,0
0,0,0,0
0,0,0,0
0,0,0,0
0,0,0,0
0,0,0,0
0,0,0,0
0,0,0,0
0,0,0,0
0,0,0,0
0,0,0,0
0,0,0,0
0,0,0,0
0,0,0,0
0,0,0,0
0,0,0,0
0,0,0,0
0,0,0,0
0,0,0,0
0,0,0,0
0,0,0,0
0,0,0,0
0,0,0,0
0,0,0,0
0,0,0,0
0,0,0,0
0,0,0,0
0,0,0,0
0,0,0,0
0,0,0,0
0,0,0,0
0,0,0,0
0,0,0,0
0,0,0,0
0,0,0,0
0,0,0,0
0,0,0,0
0,0,0,0
0,0,0,0
0,0,0,0
0,0,0,0
0,0,0,0
0,0,0,0
0,0,0,0
0,0,0,0
0,0,0,0
0,0,0,0
0,0,0,0
0,0,0,0
0,0,0,0
0,0,0,0
0,0,0,0
0,0,0,0
0,0,0,0
0,0,0,0
0,0,0,0
0,0,0,0
0,0,0,0
0,0,0,0
0,0,0,0
0,0,0,0
0,0,0,0
0,0,0,0
0,0,0,0
0,0,0,0
0,0,0,0
0,0,0,0
0,0,0,0
0,0,0,0
0,0,0,0
0,0,0,0
0,0,0,0
0,0,0,0
0,0,0,0
0,0,0,0
0,0,0,0
0,0,0,0
0,0,0,0
0,0,0,0
0,0,0,0
0,0,0,0
0,0,0,0
0,0,0,0
0,0,0,0
0,0,0,0
0,0,0,0
0,0,0,0
0,0,0,0
0,0,0,0
0,0,0,0
0,0,0,0
0,0,0,0
0,0,0,0
-1.962,0.854,0.494,1.000
-1.957,0.860,0.494,3.000
-1.949,0.864,0.492,7.000
-1.941,0.868,0.491,11.000
-1.934,0.874,0.490,23.000
-1.922,0.876,0.488,40.000
-1.908,0.878,0.485,52.000
-1.905,0.885,0.485,66.000
-1.911,0.896,0.487,66.000
-1.911,0.904,0.488,77.000
-1.899,0.906,0.486,74.000
-1.893,0.911,0.485,72.000
-1.890,0.918,0.485,74.000
-1.892,0.927,0.486,77.000
-1.890,0.934,0.487,74.000
-1.880,0.937,0.485,83.000
-1.877,0.944,0.485,83.000
-1.873,0.950,0.485,83.000
-1.877,0.961,0.487,81.000
-1.881,0.971,0.489,74.000
-1.920,1.000,0.500,86.000
0,0,0,0
0,0,0,0
-7.620,4.069,1.994,0.000
-7.625,4.102,1.999,0.000
-7.595,4.120,1.995,1.000
-7.578,4.147,1.994,0.000
-7.555,4.169,1.992,1.000
-7.552,4.203,1.995,1.000
-7.545,4.234,1.998,2.000
-7.533,4.260,1.998,1.000
-7.488,4.269,1.990,2.000
-7.484,4.300,1.993,2.000
-7.472,4.328,1.994,2.000
-7.468,4.362,1.997,2.000
-7.436,4.378,1.992,2.000
-7.424,4.406,1.993,2.000
-7.408,4.432,1.993,2.000
-7.398,4.457,1.994,2.000
-7.385,4.485,1.995,2.000
-7.380,4.521,1.998,2.000
-7.341,4.532,1.992,2.000
-7.350,4.569,1.998,2.000
-7.344,4.601,2.001,2.000
-7.314,4.619,1.997,2.000
-7.298,4.644,1.997,2.000
-7.270,4.662,1.994,2.000
-7.264,4.694,1.997,2.000
-7.262,4.729,2.001,2.000
-7.251,4.757,2.002,2.000
-7.226,4.777,2.000,2.000
-7.199,4.796,1.997,2.000
-7.199,4.832,2.002,2.000
-7.182,4.857,2.002,2.000
-7.174,4.886,2.004,2.000
-7.144,4.902,2.000,2.000
-7.126,4.929,2.000,1.000
-7.121,4.962,2.004,1.000
-7.112,4.993,2.006,1.000
-7.096,5.019,2.007,1.000
-7.063,5.031,2.002,1.000
-7.060,5.066,2.006,1.000
-7.047,5.094,2.007,1.000
-7.032,5.121,2.008,1.000
-7.025,5.151,2.011,1.000
-7.001,5.171,2.009,1.000
-6.987,5.199,2.011,1.000
-6.969,5.223,2.011,0.000
-6.952,5.248,2.011,0.000
-6.943,5.280,2.014,0.000
-6.928,5.306,2.015,0.000
-6.897,5.321,2.011,0.000
-6.888,5.352,2.014,0.000
-6.883,5.387,2.018,0.000
-6.852,5.401,2.014,0.000
-6.842,5.432,2.017,0.000
-6.836,5.467,2.021,0.000
-6.814,5.489,2.020,0.000
-6.807,5.520,2.023,0.000
-6.777,5.535,2.020,0.000
-6.769,5.566,2.023,0.000
-6.751,5.591,2.024,0.000
-6.723,5.609,2.021,0.000
-6.706,5.635,2.022,1.000
-6.718,5.685,2.032,0.000
-6.691,5.702,2.030,0.000
-6.659,5.715,2.026,0.000
-6.642,5.741,2.027,0.000
-6.636,5.777,2.031,0.000
-6.640,5.821,2.039,0.000
-6.605,5.827,2.034,0.000
-6.595,5.859,2.037,0.000
-6.578,5.890,2.039,0.000
-6.572,5.926,2.043,0.000
-6.546,5.940,2.041,0.000
-6.536,5.972,2.044,0.000
-6.493,5.975,2.037,0.000
-6.492,6.016,2.043,0.000
-6.485,6.050,2.048,0.000
-7.578,7.118,2.400,0.000
-6.451,6.103,2.050,0.000
-7.532,7.175,2.402,0.000
-6.392,6.131,2.045,0.000
-6.384,6.167,2.049,0.000
-6.362,6.191,2.049,0.000
-6.340,6.213,2.049,0.000
-6.390,6.304,2.072,1.000
-6.358,6.316,2.069,4.000
-6.267,6.269,2.047,2.000
-6.223,6.269,2.039,5.000
-6.207,6.296,2.041,5.000
-6.184,6.317,2.041,5.000
-6.163,6.337,2.041,4.000
-6.161,6.380,2.048,0.000
-6.155,6.418,2.053,0.000
-6.119,6.425,2.048,0.000
-6.088,6.438,2.046,0.000
-6.090,6.485,2.054,0.000
-6.060,6.497,2.051,0.000
-6.038,6.518,2.051,0.000
-6.017,6.542,2.052,0.000
-5.981,6.548,2.048,0.000
-5.978,6.588,2.054,0.000
-5.960,6.615,2.056,0.000
-5.944,6.645,2.058,0.000
-5.897,6.640,2.050,0.000
-5.881,6.664,2.052,0.000
-5.858,6.685,2.052,0.000
-5.841,6.715,2.055,0.000
-5.795,6.709,2.047,0.000
-5.788,6.746,2.052,0.000
-5.754,6.754,2.048,0.000
-5.748,6.795,2.055,0.000
-5.727,6.818,2.056,0.000
-5.743,6.886,2.070,0.000
-5.679,6.858,2.056,0.000
-5.660,6.883,2.057,0.000
-5.636,6.903,2.057,0.000
-5.623,6.934,2.061,0.000
-1.918,2.382,0.706,0.000
-1.915,2.396,0.708,6.000
-1.909,2.406,0.709,6.000
-1.876,2.380,0.700,2.000
-1.843,2.356,0.691,1.000
-1.812,2.333,0.682,1.000
-1.778,2.305,0.672,2.000
-1.757,2.295,0.667,2.000
-1.726,2.271,0.659,2.000
-1.710,2.266,0.656,2.000
-1.692,2.258,0.651,3.000
-1.669,2.244,0.646,3.000
-1.634,2.212,0.635,2.000
-1.603,2.186,0.626,2.000
-1.602,2.201,0.629,2.000
-1.604,2.219,0.632,2.000
-1.583,2.207,0.627,1.000
-1.544,2.169,0.615,1.000
-1.445,2.045,0.578,3.000
-1.426,2.032,0.573,6.000
-1.412,2.028,0.570,2.000
-1.392,2.014,0.565,5.000
-1.374,2.002,0.561,7.000
-1.362,1.999,0.558,11.000
-1.345,1.989,0.554,30.000
-1.336,1.990,0.553,40.000
-1.312,1.969,0.546,40.000
-1.295,1.959,0.542,46.000
-1.290,1.967,0.543,98.000
-1.286,1.974,0.544,100.000
-1.280,1.980,0.544,54.000
-1.257,1.960,0.538,46.000
-1.246,1.958,0.536,43.000
-1.233,1.952,0.533,44.000
-1.222,1.950,0.531,44.000
-1.207,1.941,0.528,45.000
-1.188,1.925,0.522,45.000
-1.170,1.911,0.517,47.000
-1.156,1.902,0.514,48.000
-1.145,1.899,0.512,48.000
-1.134,1.897,0.510,48.000
-1.116,1.880,0.505,47.000
-1.100,1.867,0.500,47.000
-1.090,1.866,0.499,45.000
-1.081,1.865,0.498,47.000
-1.072,1.865,0.497,49.000
-1.053,1.847,0.491,46.000
-1.037,1.834,0.486,46.000
-1.028,1.832,0.485,57.000
-1.027,1.846,0.488,59.000
-1.028,1.863,0.491,55.000
-1.018,1.860,0.489,51.000
-1.014,1.869,0.491,44.000
-1.009,1.876,0.492,31.000
-1.013,1.898,0.497,19.000
-1.008,1.903,0.497,11.000
-1.003,1.910,0.498,7.000
-0.993,1.907,0.496,4.000
-0.982,1.903,0.494,1.000
-0.990,1.934,0.502,1.000
-0.988,1.948,0.504,1.000
0,0,0,0
0,0,0,0
0,0,0,0
0,0,0,0
0,0,0,0
0,0,0,0
0,0,0,0
0,0,0,0
0,0,0,0
0,0,0,0
0,0,0,0
0,0,0,0
0,0,0,0
0,0,0,0
0,0,0,0
0,0,0,0
0,0,0,0
0,0,0,0
0,0,0,0
0,0,0,0
0,0,0,0
0,0,0,0
0,0,0,0
0,0,0,0
0,0,0,0
0,0,0,0
0,0,0,0
0,0,0,0
0,0,0,0
0,0,0,0
0,0,0,0
0,0,0,0
0,0,0,0
0,0,0,0
0,0,0,0
0,0,0,0
0,0,0,0
0,0,0,0
0,0,0,0
0,0,0,0
0,0,0,0
0,0,0,0
0,0,0,0
0,0,0,0
0,0,0,0
0,0,0,0
0,0,0,0
0,0,0,0
0,0,0,0
0,0,0,0
0,0,0,0
0,0,0,0
0,0,0,0
0,0,0,0
0,0,0,0
0,0,0,0
0,0,0,0
0,0,0,0
0,0,0,0
0,0,0,0
0,0,0,0
0,0,0,0
0,0,0,0
0,0,0,0
0,0,0,0
0,0,0,0
0,0,0,0
0,0,0,0
0,0,0,0
0,0,0,0
0,0,0,0
0,0,0,0
0,0,0,0
0,0,0,0
0,0,0,0
0,0,0,0
0,0,0,0
0,0,0,0
0,0,0,0
0,0,0,0
0,0,0,0
0,0,0,0
0,0,0,0
0,0,0,0
0,0,0,0
0,0,0,0
0,0,0,0
0,0,0,0
0,0,0,0
0,0,0,0
0,0,0,0
0,0,0,0
0,0,0,0
0,0,0,0
0,0,0,0
0,0,0,0
0,0,0,0
0,0,0,0
0,0,0,0
0,0,0,0
0,0,0,0
0,0,0,0
0,0,0,0
0,0,0,0
0,0,0,0
0,0,0,0
0,0,0,0
0,0,0,0
0,0,0,0
0,0,0,0
0,0,0,0
0,0,0,0
0,0,0,0
0,0,0,0
0,0,0,0
0,0,0,0
0,0,0,0
0,0,0,0
0,0,0,0
0,0,0,0
0,0,0,0
0,0,0,0
0,0,0,0
0,0,0,0
0,0,0,0
0,0,0,0
0,0,0,0
0,0,0,0
0,0,0,0
0,0,0,0
0,0,0,0
0,0,0,0
0,0,0,0
0,0,0,0
0,0,0,0
0,0,0,0
0,0,0,0
0,0,0,0
0,0,0,0
0,0,0,0
0,0,0,0
0,0,0,0
0,0,0,0
0,0,0,0
0,0,0,0
0,0,0,0
0,0,0,0
0,0,0,0
0,0,0,0
0,0,0,0
0,0,0,0
0,0,0,0
0,0,0,0
0,0,0,0
0,0,0,0
0,0,0,0
0,0,0,0
0,0,0,0
0,0,0,0
0,0,0,0
0,0,0,0
0,0,0,0
0,0,0,0
0,0,0,0
0,0,0,0
0,0,0,0
0,0,0,0
0,0,0,0
0,0,0,0
0,0,0,0
0,0,0,0
0,0,0,0
0,0,0,0
0,0,0,0
0,0,0,0
0,0,0,0
0,0,0,0
0,0,0,0
0,0,0,0
0,0,0,0
0,0,0,0
0,0,0,0
0,0,0,0
0,0,0,0
0,0,0,0
0,0,0,0
0,0,0,0
0,0,0,0
0,0,0,0
0,0,0,0
0,0,0,0
0,0,0,0
0,0,0,0
0,0,0,0
0,0,0,0
0,0,0,0
0,0,0,0
0,0,0,0
0,0,0,0
0,0,0,0
0,0,0,0
0,0,0,0
0,0,0,0
0,0,0,0
0,0,0,0
0,0,0,0
0,0,0,0
0,0,0,0
0,0,0,0
0,0,0,0
0,0,0,0
0,0,0,0
0,0,0,0
0,0,0,0
0,0,0,0
0,0,0,0
0,0,0,0
0,0,0,0
0,0,0,0
0,0,0,0
0,0,0,0
0,0,0,0
0,0,0,0
0,0,0,0
0,0,0,0
0,0,0,0
0,0,0,0
3.462,10.327,2.117,0.000
3.498,10.315,2.117,0.000
3.507,10.225,2.101,0.000
3.525,10.173,2.093,0.000
3.554,10.142,2.089,0.000
3.592,10.137,2.091,1.000
3.628,10.128,2.091,1.000
3.659,10.103,2.089,1.000
3.700,10.106,2.092,2.000
3.730,10.073,2.088,4.000
3.765,10.059,2.088,5.000
3.800,10.057,2.090,5.000
3.835,10.042,2.089,5.000
3.867,10.023,2.088,5.000
3.907,10.020,2.091,5.000
3.928,9.978,2.084,6.000
3.963,9.964,2.084,9.000
4.005,9.968,2.088,13.000
4.038,9.949,2.087,13.000
4.073,9.937,2.087,17.000
4.106,9.919,2.087,18.000
4.136,9.898,2.085,21.000
4.174,9.890,2.087,21.000
4.206,9.870,2.086,24.000
4.244,9.865,2.087,28.000
4.276,9.843,2.086,30.000
4.310,9.828,2.086,31.000
4.349,9.823,2.088,30.000
4.382,9.804,2.087,31.000
4.413,9.784,2.086,33.000
4.446,9.765,2.086,34.000
4.486,9.768,2.089,30.000
4.516,9.741,2.087,37.000
4.552,9.735,2.089,37.000
4.585,9.717,2.089,38.000
4.619,9.697,2.088,39.000
4.653,9.681,2.088,39.000
4.690,9.672,2.089,38.000
4.725,9.659,2.090,39.000
4.754,9.632,2.088,40.000
4.786,9.611,2.087,39.000
4.820,9.596,2.087,37.000
4.855,9.581,2.088,39.000
4.890,9.577,2.090,39.000
4.922,9.556,2.089,38.000
4.948,9.525,2.086,40.000
4.986,9.518,2.089,38.000
5.020,9.500,2.089,38.000
5.058,9.493,2.091,39.000
5.086,9.465,2.089,38.000
5.113,9.437,2.086,39.000
5.146,9.423,2.087,39.000
5.181,9.409,2.088,39.000
5.221,9.396,2.089,39.000
5.248,9.367,2.087,40.000
5.275,9.347,2.086,38.000
5.308,9.329,2.086,39.000
5.344,9.313,2.087,41.000
5.379,9.297,2.088,40.000
5.407,9.272,2.086,40.000
5.435,9.246,2.085,39.000
5.474,9.237,2.087,38.000
5.506,9.218,2.087,40.000
5.540,9.206,2.089,39.000
5.568,9.180,2.087,39.000
5.598,9.157,2.086,39.000
5.634,9.144,2.088,38.000
5.667,9.129,2.089,38.000
5.699,9.109,2.089,39.000
5.724,9.079,2.086,40.000
5.754,9.056,2.086,38.000
5.790,9.042,2.087,39.000
5.819,9.019,2.086,40.000
5.859,9.012,2.089,40.000
5.884,8.981,2.087,40.000
5.911,8.954,2.086,40.000
5.949,8.943,2.088,38.000
5.976,8.920,2.087,39.000
6.009,8.903,2.088,40.000
6.038,8.881,2.087,37.000
6.065,8.855,2.086,40.000
6.097,8.838,2.087,40.000
6.133,8.825,2.089,37.000
6.171,8.813,2.091,34.000
6.189,8.774,2.087,40.000
6.221,8.747,2.086,39.000
6.258,8.734,2.089,38.000
6.291,8.716,2.089,38.000
6.321,8.694,2.089,38.000
6.345,8.666,2.088,40.000
6.373,8.641,2.087,40.000
6.403,8.619,2.087,40.000
6.438,8.603,2.089,38.000
6.470,8.583,2.089,39.000
6.491,8.548,2.086,40.000
6.521,8.525,2.086,39.000
6.554,8.507,2.087,37.000
6.590,8.492,2.089,39.000
6.618,8.467,2.089,37.000
6.644,8.440,2.088,39.000
6.677,8.421,2.089,25.000
6.687,8.380,2.084,39.000
6.734,8.378,2.089,40.000
6.762,8.350,2.089,41.000
6.784,8.318,2.086,41.000
6.810,8.294,2.086,41.000
6.839,8.270,2.086,41.000
6.872,8.248,2.087,43.000
6.902,8.225,2.087,48.000
6.932,8.202,2.087,55.000
6.955,8.172,2.086,60.000
6.981,8.145,2.085,102.000
7.016,8.128,2.087,110.000
7.049,8.109,2.089,116.000
7.076,8.083,2.088,125.000
7.104,8.061,2.089,126.000
7.134,8.038,2.089,131.000
7.179,8.032,2.094,136.000
7.191,7.989,2.089,41.000
7.211,7.955,2.087,40.000
7.233,7.924,2.086,38.000
7.264,7.902,2.086,39.000
7.291,7.876,2.086,39.000
7.323,7.855,2.087,37.000
7.346,7.825,2.086,38.000
7.365,7.794,2.084,37.000
7.396,7.772,2.086,39.000
7.425,7.748,2.086,37.000
7.459,7.729,2.088,38.000
7.477,7.694,2.086,40.000
7.501,7.666,2.085,39.000
7.528,7.645,2.086,40.000
7.560,7.624,2.087,41.000
7.588,7.596,2.087,38.000
7.615,7.570,2.087,41.000
7.633,7.535,2.085,32.000
7.656,7.505,2.084,35.000
7.695,7.494,2.088,40.000
7.718,7.464,2.087,41.000
7.735,7.430,2.085,40.000
7.760,7.403,2.085,41.000
7.789,7.379,2.086,41.000
7.809,7.346,2.084,29.000
7.805,7.291,2.076,53.000
7.824,7.258,2.074,113.000
7.842,7.224,2.073,113.000
7.885,7.212,2.077,56.000
7.942,7.214,2.086,40.000
7.970,7.189,2.086,41.000
7.988,7.157,2.085,39.000
8.007,7.124,2.083,41.000
8.040,7.101,2.085,43.000
8.070,7.077,2.086,41.000
8.103,7.059,2.089,33.000
8.112,7.017,2.085,37.000
8.133,6.986,2.084,41.000
8.166,6.965,2.086,39.000
8.189,6.938,2.086,41.000
8.220,6.914,2.088,41.000
8.233,6.874,2.085,41.000
8.249,6.839,2.083,41.000
8.287,6.821,2.086,41.000
8.310,6.792,2.086,41.000
8.339,6.770,2.088,39.000
8.355,6.734,2.086,41.000
8.374,6.702,2.085,40.000
8.403,6.677,2.086,40.000
8.436,6.655,2.089,38.000
8.450,6.618,2.086,41.000
8.471,6.588,2.086,43.000
8.491,6.556,2.085,43.000
8.515,6.527,2.086,40.000
8.484,6.456,2.072,11.000
8.434,6.372,2.055,7.000
8.360,6.270,2.031,7.000
8.314,6.191,2.015,7.000
8.282,6.122,2.002,6.000
0,0,0,0
8.239,6.001,1.981,41.000
8.190,5.922,1.965,43.000
8.144,5.845,1.949,43.000
8.108,5.781,1.936,41.000
8.016,5.673,1.909,13.000
7.982,5.608,1.896,35.000
7.997,5.577,1.895,33.000
8.819,6.104,2.085,18.000
8.840,6.073,2.085,20.000
8.864,6.045,2.086,18.000
8.895,6.020,2.088,18.000
7.728,5.191,1.810,37.000
7.704,5.136,1.800,56.000
7.669,5.074,1.787,57.000
7.644,5.019,1.778,62.000
7.609,4.958,1.765,102.000
7.564,4.891,1.751,60.000
7.534,4.836,1.740,62.000
7.497,4.776,1.728,105.000
7.471,4.723,1.718,105.000
7.447,4.672,1.709,58.000
7.400,4.606,1.694,105.000
7.360,4.545,1.681,108.000
7.339,4.497,1.673,60.000
7.317,4.449,1.665,102.000
7.284,4.394,1.654,110.000
7.245,4.336,1.641,121.000
7.213,4.284,1.631,121.000
7.249,4.272,1.636,131.000
7.285,4.259,1.640,138.000
7.301,4.234,1.641,136.000
7.323,4.211,1.642,137.000
7.348,4.191,1.644,137.000
7.386,4.181,1.650,138.000
7.426,4.169,1.655,139.000
7.463,4.156,1.660,137.000
7.488,4.135,1.663,138.000
7.508,4.111,1.664,139.000
7.545,4.097,1.669,137.000
7.572,4.079,1.672,136.000
7.604,4.062,1.676,136.000
7.624,4.040,1.677,135.000
7.656,4.023,1.681,138.000
7.684,4.003,1.684,138.000
7.727,3.992,1.691,139.000
7.763,3.974,1.695,139.000
7.787,3.952,1.697,139.000
7.818,3.935,1.701,139.000
7.858,3.921,1.707,137.000
7.890,3.901,1.711,135.000
7.921,3.882,1.715,135.000
7.944,3.861,1.717,136.000
7.972,3.840,1.720,137.000
8.002,3.822,1.724,137.000
8.047,3.809,1.731,138.000
8.089,3.794,1.737,137.000
8.113,3.771,1.739,137.000
8.143,3.752,1.743,138.000
8.178,3.734,1.747,135.000
8.206,3.710,1.750,135.000
8.263,3.702,1.760,138.000
8.267,3.670,1.758,137.000
8.301,3.651,1.763,138.000
8.339,3.633,1.768,137.000
8.388,3.619,1.776,137.000
8.418,3.598,1.779,119.000
6.277,2.657,1.325,25.000
6.254,2.622,1.318,113.000
0,0,0,0
6.247,2.566,1.313,10.000
6.249,2.541,1.311,21.000
6.228,2.508,1.305,23.000
6.204,2.473,1.298,21.000
6.195,2.444,1.294,22.000
6.189,2.417,1.291,21.000
6.175,2.388,1.287,21.000
6.143,2.351,1.278,22.000
6.117,2.318,1.272,23.000
6.100,2.287,1.266,21.000
6.089,2.257,1.262,21.000
6.083,2.231,1.259,20.000
6.053,2.197,1.252,20.000
6.035,2.167,1.246,21.000
6.023,2.140,1.243,23.000
6.009,2.111,1.238,22.000
5.990,2.080,1.233,22.000
5.968,2.049,1.227,20.000
5.949,2.019,1.221,20.000
5.941,1.994,1.218,19.000
5.933,1.968,1.215,20.000
5.918,1.940,1.210,21.000
5.898,1.912,1.205,21.000
5.867,1.879,1.198,22.000
5.858,1.855,1.194,20.000
5.842,1.827,1.190,21.000
5.820,1.798,1.184,9.000
5.767,1.760,1.172,5.000
5.747,1.731,1.167,6.000
5.753,1.711,1.167,5.000
3.323,0.976,0.673,6.000
3.332,0.966,0.674,3.000
3.324,0.951,0.672,3.000
3.321,0.938,0.671,3.000
3.336,0.930,0.673,3.000
3.349,0.921,0.675,3.000
3.354,0.910,0.675,3.000
3.345,0.895,0.673,3.000
0,0,0,0
3.350,0.871,0.673,127.000
3.370,0.864,0.676,22.000
3.377,0.853,0.677,10.000
3.368,0.839,0.675,5.000
3.365,0.825,0.674,4.000
3.372,0.815,0.674,4.000
3.379,0.804,0.675,4.000
3.389,0.794,0.677,15.000
0,0,0,0
3.387,0.768,0.675,129.000
3.397,0.758,0.677,128.000
3.404,0.747,0.677,126.000
3.406,0.735,0.677,118.000
0,0,0,0
3.411,0.713,0.677,3.000
3.414,0.700,0.677,10.000
0,0,0,0
3.436,0.680,0.681,133.000
3.431,0.666,0.679,130.000
3.425,0.653,0.678,131.000
3.439,0.643,0.680,131.000
3.445,0.632,0.681,133.000
3.453,0.621,0.682,134.000
3.447,0.608,0.680,128.000
3.453,0.596,0.681,111.000
3.461,0.585,0.682,133.000
3.467,0.573,0.683,133.000
3.473,0.562,0.684,131.000
3.467,0.549,0.682,133.000
3.473,0.538,0.683,131.000
3.479,0.526,0.684,133.000
3.488,0.515,0.685,131.000
0,0,0,0
3.501,0.493,0.687,3.000
3.495,0.479,0.686,3.000
3.493,0.466,0.685,3.000
0,0,0,0
5.138,0.650,1.007,105.000
5.131,0.631,1.005,124.000
5.104,0.609,0.999,125.000
5.098,0.591,0.998,124.000
5.098,0.574,0.997,126.000
5.088,0.555,0.995,126.000
5.067,0.533,0.990,126.000
5.049,0.514,0.986,123.000
5.045,0.496,0.985,124.000
5.045,0.479,0.985,123.000
5.042,0.461,0.984,123.000
5.024,0.441,0.980,128.000
5.006,0.421,0.977,129.000
5.004,0.403,0.976,129.000
4.999,0.386,0.975,130.000
4.987,0.368,0.972,129.000
4.963,0.349,0.967,131.000
4.948,0.330,0.964,133.000
4.941,0.313,0.962,130.000
4.935,0.295,0.961,133.000
4.928,0.277,0.959,130.000
4.909,0.259,0.956,130.000
4.894,0.241,0.953,130.000
4.891,0.224,0.952,131.000
4.890,0.207,0.951,129.000
4.881,0.189,0.949,130.000
4.864,0.173,0.946,129.000
4.849,0.156,0.943,128.000
4.845,0.138,0.942,129.000
4.844,0.121,0.942,130.000
4.836,0.106,0.940,131.000
4.817,0.088,0.936,133.000
4.802,0.071,0.933,133.000
4.796,0.054,0.932,134.000
4.788,0.038,0.931,134.000
4.786,0.021,0.930,135.000
4.757,0.004,0.925,135.000
4.745,-0.012,0.922,134.000
4.743,-0.031,0.922,135.000
4.737,-0.047,0.921,134.000
4.741,-0.062,0.922,136.000
4.713,-0.078,0.916,134.000
4.705,-0.094,0.915,134.000
4.701,-0.111,0.914,134.000
4.694,-0.127,0.913,135.000
4.688,-0.143,0.912,134.000
4.676,-0.160,0.909,134.000
4.667,-0.176,0.908,37.000
4.663,-0.191,0.907,14.000
4.648,-0.206,0.904,14.000
0,0,0,0
4.661,-0.239,0.907,126.000
4.648,-0.256,0.905,126.000
4.643,-0.272,0.904,128.000
4.638,-0.287,0.903,128.000
4.641,-0.303,0.904,128.000
4.624,-0.318,0.901,129.000
4.606,-0.333,0.898,131.000
4.600,-0.348,0.897,131.000
4.599,-0.364,0.897,130.000
4.590,-0.380,0.895,131.000
4.573,-0.394,0.892,133.000
4.556,-0.409,0.889,131.000
4.551,-0.425,0.888,131.000
4.545,-0.440,0.888,133.000
4.546,-0.456,0.888,134.000
4.517,-0.469,0.883,131.000
4.509,-0.484,0.882,133.000
4.504,-0.498,0.881,133.000
4.502,-0.514,0.881,133.000
4.500,-0.529,0.881,133.000
4.483,-0.543,0.878,133.000
4.469,-0.557,0.875,133.000
4.463,-0.573,0.875,130.000
4.467,-0.589,0.876,134.000
4.459,-0.604,0.875,131.000
4.440,-0.616,0.871,129.000
4.426,-0.630,0.869,129.000
4.425,-0.646,0.869,130.000
4.425,-0.661,0.870,129.000
4.415,-0.676,0.868,129.000
4.403,-0.689,0.866,130.000
4.385,-0.702,0.863,131.000
4.383,-0.718,0.863,130.000
4.380,-0.732,0.863,131.000
4.374,-0.747,0.862,131.000
4.359,-0.760,0.860,133.000
4.347,-0.774,0.858,134.000
4.346,-0.789,0.859,133.000
4.338,-0.803,0.857,134.000
4.331,-0.818,0.857,134.000
4.322,-0.832,0.856,135.000
4.294,-0.842,0.851,135.000
4.291,-0.857,0.851,135.000
4.296,-0.873,0.852,134.000
4.289,-0.887,0.851,135.000
4.271,-0.898,0.848,134.000
4.268,-0.913,0.848,136.000
4.245,-0.924,0.845,134.000
4.263,-0.944,0.849,135.000
4.246,-0.955,0.846,136.000
4.232,-0.968,0.844,135.000
4.213,-0.979,0.841,133.000
4.202,-0.992,0.839,54.000
4.191,-1.005,0.838,41.000
4.185,-1.019,0.837,45.000
4.166,-1.030,0.834,45.000
4.151,-1.041,0.832,56.000
4.155,-1.058,0.833,54.000
4.174,-1.078,0.838,37.000
7.308,-1.914,1.468,13.000
7.277,-1.933,1.464,103.000
7.262,-1.958,1.462,116.000
7.247,-1.981,1.460,119.000
7.237,-2.004,1.460,119.000
7.226,-2.028,1.459,121.000
7.196,-2.047,1.454,116.000
7.185,-2.071,1.454,114.000
7.174,-2.095,1.453,114.000
7.171,-2.121,1.454,116.000
7.160,-2.145,1.453,114.000
7.141,-2.167,1.451,111.000
7.128,-2.190,1.449,105.000
7.118,-2.214,1.449,110.000
7.110,-2.239,1.449,110.000
7.095,-2.262,1.447,110.000
7.078,-2.283,1.446,108.000
7.058,-2.304,1.443,108.000
7.054,-2.330,1.444,105.000
7.042,-2.354,1.443,102.000
7.030,-2.377,1.443,105.000
7.014,-2.399,1.441,24.000
6.995,-2.419,1.439,102.000
6.990,-2.445,1.439,25.000
6.978,-2.468,1.439,25.000
6.969,-2.493,1.439,25.000
6.953,-2.514,1.437,14.000
3.952,-1.444,0.818,43.000
3.934,-1.454,0.815,112.000
3.921,-1.464,0.814,125.000
3.932,-1.484,0.817,137.000
3.894,-1.486,0.810,138.000
3.882,-1.496,0.809,137.000
3.884,-1.513,0.810,138.000
3.875,-1.525,0.809,138.000
3.877,-1.541,0.811,137.000
3.857,-1.549,0.808,138.000
3.840,-1.558,0.806,137.000
3.844,-1.575,0.808,139.000
3.842,-1.590,0.808,139.000
3.838,-1.604,0.809,138.000
3.822,-1.613,0.806,138.000
3.816,-1.626,0.806,137.000
3.807,-1.638,0.806,138.000
3.802,-1.650,0.806,139.000
3.807,-1.668,0.808,139.000
3.779,-1.672,0.803,122.000
3.775,-1.686,0.804,133.000
3.776,-1.703,0.805,140.000
3.756,-1.709,0.802,141.000
3.750,-1.722,0.802,141.000
3.737,-1.732,0.801,141.000
3.726,-1.743,0.799,140.000
3.725,-1.758,0.801,141.000
3.717,-1.770,0.800,140.000
3.711,-1.783,0.800,139.000
3.699,-1.793,0.799,139.000
3.691,-1.805,0.799,137.000
3.685,-1.819,0.799,137.000
3.680,-1.832,0.799,139.000
3.675,-1.846,0.799,139.000
3.660,-1.855,0.798,139.000
3.648,-1.865,0.796,139.000
3.644,-1.878,0.797,139.000
3.646,-1.895,0.799,140.000
3.639,-1.908,0.799,140.000
3.629,-1.918,0.798,140.000
3.614,-1.926,0.796,139.000
3.616,-1.944,0.798,140.000
3.612,-1.959,0.799,140.000
3.609,-1.973,0.799,140.000
3.595,-1.982,0.798,140.000
3.582,-1.990,0.796,139.000
3.582,-2.006,0.798,140.000
3.576,-2.020,0.798,139.000
3.571,-2.033,0.799,139.000
3.555,-2.040,0.797,139.000
3.543,-2.050,0.796,138.000
3.542,-2.067,0.797,137.000
3.537,-2.081,0.798,139.000
3.533,-2.094,0.798,139.000
3.516,-2.100,0.796,139.000
3.507,-2.112,0.796,139.000
3.501,-2.125,0.796,139.000
3.498,-2.140,0.797,137.000
3.498,-2.157,0.799,139.000
3.484,-2.164,0.797,138.000
3.478,-2.177,0.798,141.000
3.469,-2.188,0.797,139.000
3.469,-2.206,0.799,125.000
3.484,-2.233,0.804,131.000
3.476,-2.246,0.804,138.000
3.464,-2.254,0.803,139.000
3.449,-2.262,0.802,137.000
3.448,-2.278,0.803,136.000
3.437,-2.288,0.803,136.000
3.426,-2.298,0.802,137.000
3.418,-2.310,0.802,137.000
3.413,-2.324,0.803,137.000
3.414,-2.342,0.805,137.000
3.406,-2.354,0.805,137.000
3.388,-2.359,0.803,137.000
3.377,-2.368,0.802,137.000
3.372,-2.382,0.803,137.000
3.373,-2.401,0.805,137.000
3.368,-2.416,0.806,136.000
3.353,-2.423,0.804,137.000
3.341,-2.432,0.803,136.000
3.339,-2.448,0.805,137.000
3.334,-2.462,0.806,137.000
3.332,-2.478,0.807,137.000
3.317,-2.485,0.806,137.000
3.305,-2.494,0.805,137.000
3.306,-2.513,0.807,137.000
3.300,-2.527,0.808,138.000
3.294,-2.541,0.809,137.000
3.279,-2.548,0.807,137.000
3.270,-2.559,0.807,137.000
3.267,-2.575,0.809,137.000
3.262,-2.589,0.809,137.000
3.256,-2.603,0.810,137.000
3.243,-2.611,0.809,137.000
3.236,-2.624,0.810,139.000
3.231,-2.639,0.811,136.000
3.228,-2.655,0.812,138.000
3.225,-2.671,0.814,137.000
3.212,-2.680,0.813,138.000
3.199,-2.688,0.812,139.000
3.197,-2.705,0.814,137.000
3.192,-2.720,0.815,139.000
3.191,-2.739,0.817,139.000
3.174,-2.744,0.816,137.000
3.165,-2.754,0.816,139.000
3.164,-2.773,0.818,138.000
3.160,-2.789,0.819,137.000
3.154,-2.803,0.820,138.000
3.141,-2.811,0.819,138.000
3.128,-2.819,0.819,138.000
3.128,-2.837,0.821,138.000
3.119,-2.849,0.821,139.000
3.119,-2.871,0.824,137.000
3.109,-2.882,0.824,137.000
3.096,-2.889,0.823,138.000
3.087,-2.901,0.824,139.000
3.087,-2.922,0.826,137.000
3.080,-2.935,0.827,137.000
3.068,-2.942,0.826,137.000
3.058,-2.953,0.826,135.000
3.053,-2.969,0.828,137.000
3.045,-2.982,0.828,137.000
3.043,-3.002,0.831,135.000
3.029,-3.009,0.830,137.000
3.016,-3.017,0.829,137.000
3.008,-3.030,0.830,136.000
3.006,-3.049,0.832,135.000
2.998,-3.063,0.833,135.000
2.985,-3.070,0.832,135.000
2.974,-3.081,0.832,135.000
2.969,-3.097,0.834,136.000
2.963,-3.113,0.835,135.000
2.956,-3.125,0.836,135.000
2.942,-3.133,0.835,136.000
2.934,-3.146,0.836,135.000
2.928,-3.162,0.838,137.000
2.922,-3.178,0.839,136.000
2.916,-3.194,0.841,137.000
2.906,-3.204,0.841,135.000
2.895,-3.214,0.841,137.000
2.886,-3.227,0.841,137.000
2.880,-3.243,0.843,136.000
2.882,-3.267,0.847,130.000
2.874,-3.282,0.848,138.000
2.854,-3.281,0.845,137.000
2.847,-3.297,0.847,137.000
2.843,-3.316,0.849,137.000
2.839,-3.335,0.851,136.000
2.826,-3.341,0.851,138.000
2.817,-3.354,0.851,137.000
2.809,-3.371,0.853,137.000
2.810,-3.396,0.857,137.000
2.801,-3.408,0.857,137.000
2.791,-3.421,0.858,136.000
2.780,-3.430,0.858,137.000
2.773,-3.446,0.860,136.000
2.771,-3.468,0.863,136.000
2.763,-3.484,0.864,136.000
2.751,-3.494,0.864,135.000
2.737,-3.500,0.864,137.000
2.731,-3.519,0.866,136.000
2.729,-3.541,0.869,135.000
2.719,-3.553,0.870,135.000
2.706,-3.563,0.870,135.000
2.694,-3.572,0.870,135.000
2.688,-3.591,0.872,134.000
2.688,-3.616,0.876,136.000
2.675,-3.626,0.876,135.000
2.662,-3.635,0.876,134.000
2.653,-3.649,0.877,135.000
2.641,-3.660,0.877,135.000
2.636,-3.679,0.880,135.000
2.636,-3.707,0.884,136.000
2.612,-3.700,0.880,135.000
2.613,-3.729,0.885,136.000
2.595,-3.731,0.883,135.000
2.591,-3.753,0.886,135.000
2.585,-3.772,0.889,136.000
2.570,-3.777,0.888,135.000
2.564,-3.798,0.891,135.000
2.557,-3.815,0.893,136.000
2.550,-3.833,0.895,135.000
2.547,-3.859,0.899,135.000
2.534,-3.867,0.899,134.000
2.521,-3.878,0.899,133.000
2.511,-3.894,0.901,133.000
2.506,-3.916,0.904,131.000
2.499,-3.934,0.906,130.000
2.486,-3.945,0.906,129.000
2.472,-3.953,0.906,129.000
2.466,-3.973,0.909,133.000
2.462,-3.997,0.912,134.000
2.451,-4.010,0.914,130.000
2.439,-4.022,0.914,133.000
2.426,-4.032,0.915,111.000
2.420,-4.054,0.918,31.000
4.040,-6.821,1.541,40.000
4.026,-6.852,1.545,56.000
4.147,-7.116,1.601,26.000
4.131,-7.146,1.604,25.000
3.629,-6.327,1.418,2.000
4.033,-7.088,1.585,22.000
3.989,-7.068,1.578,22.000
3.934,-7.027,1.565,24.000
3.881,-6.987,1.554,23.000
3.843,-6.976,1.548,25.000
3.799,-6.958,1.541,26.000
3.754,-6.934,1.533,25.000
3.712,-6.909,1.525,9.000
3.661,-6.872,1.513,9.000
3.622,-6.857,1.507,10.000
3.574,-6.825,1.497,9.000
3.536,-6.807,1.491,9.000
3.483,-6.763,1.479,9.000
3.441,-6.741,1.471,10.000
3.405,-6.728,1.466,6.000
2.234,-4.452,0.968,23.000
2.219,-4.461,0.969,40.000
2.195,-4.449,0.964,28.000
2.182,-4.462,0.965,26.000
2.173,-4.486,0.969,30.000
2.161,-4.501,0.970,23.000
2.165,-4.547,0.979,36.000
2.159,-4.576,0.983,107.000
2.148,-4.594,0.986,113.000
2.135,-4.608,0.987,110.000
2.126,-4.634,0.991,110.000
2.115,-4.652,0.993,114.000
2.102,-4.667,0.995,116.000
2.086,-4.674,0.995,116.000
2.080,-4.702,0.999,114.000
2.071,-4.728,1.003,113.000
2.061,-4.749,1.006,116.000
2.046,-4.760,1.007,114.000
2.035,-4.778,1.009,111.000
2.027,-4.804,1.014,108.000
2.016,-4.826,1.017,105.000
2.006,-4.851,1.020,60.000
1.991,-4.862,1.021,60.000
1.978,-4.880,1.023,62.000
1.967,-4.901,1.027,102.000
1.957,-4.926,1.030,62.000
1.947,-4.951,1.034,102.000
1.930,-4.958,1.034,60.000
1.919,-4.979,1.037,105.000
1.909,-5.004,1.041,105.000
1.899,-5.029,1.045,108.000
1.888,-5.054,1.049,102.000
1.875,-5.071,1.051,102.000
1.860,-5.085,1.053,62.000
1.850,-5.114,1.057,58.000
1.839,-5.139,1.061,54.000
1.828,-5.164,1.065,58.000
1.811,-5.174,1.065,55.000
1.797,-5.191,1.068,62.000
1.786,-5.216,1.072,57.000
1.772,-5.241,1.075,55.000
1.761,-5.270,1.080,58.000
1.748,-5.286,1.082,57.000
1.731,-5.296,1.083,113.000
0,0,0,0
1.695,-5.310,1.083,13.000
1.683,-5.338,1.088,21.000
1.667,-5.352,1.090,62.000
1.655,-5.378,1.094,62.000
1.645,-5.410,1.099,57.000
1.630,-5.430,1.102,62.000
1.619,-5.462,1.107,102.000
1.601,-5.472,1.108,102.000
1.586,-5.492,1.111,108.000
1.574,-5.521,1.116,102.000
1.565,-5.564,1.123,105.000
1.551,-5.588,1.127,62.000
1.543,-5.635,1.136,57.000
1.528,-5.660,1.140,53.000
1.511,-5.676,1.142,48.000
1.476,-5.625,1.130,37.000
1.455,-5.626,1.130,36.000
1.429,-5.600,1.123,37.000
1.401,-5.575,1.117,37.000
1.380,-5.568,1.115,35.000
1.357,-5.558,1.112,36.000
1.333,-5.547,1.109,35.000
1.308,-5.529,1.104,34.000
1.286,-5.518,1.101,34.000
1.265,-5.515,1.100,35.000
1.240,-5.492,1.094,36.000
1.218,-5.485,1.092,36.000
1.193,-5.465,1.087,38.000
1.168,-5.438,1.081,39.000
1.146,-5.427,1.078,39.000
1.125,-5.423,1.077,40.000
1.104,-5.415,1.074,38.000
1.081,-5.398,1.070,37.000
1.059,-5.380,1.066,38.000
1.039,-5.374,1.064,37.000
1.018,-5.372,1.063,38.000
0.997,-5.364,1.061,39.000
0.975,-5.348,1.057,39.000
0.951,-5.324,1.051,41.000
0.933,-5.324,1.051,41.000
0.912,-5.311,1.048,41.000
0.891,-5.307,1.046,41.000
0.867,-5.279,1.040,41.000
0.846,-5.263,1.036,40.000
0.825,-5.250,1.033,39.000
0.806,-5.241,1.031,39.000
0.785,-5.228,1.028,39.000
0.763,-5.212,1.024,39.000
0.741,-5.187,1.019,41.000
0.723,-5.188,1.018,43.000
0.702,-5.175,1.015,43.000
0.684,-5.165,1.013,43.000
0.663,-5.148,1.009,43.000
0.642,-5.131,1.005,45.000
0.622,-5.118,1.002,45.000
0.606,-5.118,1.002,46.000
0.587,-5.110,1.000,45.000
0.566,-5.089,0.995,43.000
0.547,-5.075,0.992,43.000
0.528,-5.061,0.989,43.000
0.509,-5.055,0.988,43.000
0.489,-5.045,0.985,41.000
0.470,-5.031,0.982,43.000
0.451,-5.014,0.978,43.000
0.433,-5.007,0.977,45.000
0.416,-5.011,0.977,46.000
0.398,-4.996,0.974,46.000
0.378,-4.984,0.972,51.000
0.359,-4.958,0.966,50.000
0.343,-4.955,0.965,50.000
0.326,-4.956,0.965,48.000
0.307,-4.946,0.963,48.000
0.288,-4.927,0.959,48.000
0.272,-4.920,0.958,50.000
0.254,-4.909,0.956,48.000
0.236,-4.906,0.955,47.000
0.218,-4.901,0.954,50.000
0.201,-4.888,0.951,47.000
0.183,-4.863,0.946,46.000
0.166,-4.864,0.946,46.000
0.149,-4.851,0.943,43.000
0.132,-4.847,0.943,45.000
0.115,-4.830,0.939,46.000
0.099,-4.825,0.938,51.000
0.081,-4.813,0.936,51.000
0.064,-4.810,0.935,53.000
0.047,-4.806,0.934,54.000
0.031,-4.782,0.930,54.000
0.014,-4.775,0.928,53.000
-0.002,-4.763,0.926,55.000
-0.019,-4.763,0.926,55.000
-0.037,-4.759,0.925,53.000
-0.053,-4.743,0.922,50.000
-0.069,-4.731,0.920,50.000
-0.086,-4.727,0.919,50.000
-0.101,-4.719,0.917,51.000
-0.118,-4.718,0.917,51.000
-0.134,-4.702,0.914,50.000
-0.150,-4.698,0.914,47.000
-0.165,-4.679,0.910,50.000
-0.181,-4.681,0.911,48.000
-0.199,-4.680,0.911,50.000
-0.214,-4.656,0.906,48.000
-0.229,-4.639,0.903,51.000
-0.245,-4.635,0.902,51.000
-0.261,-4.634,0.902,53.000
-0.276,-4.625,0.901,53.000
-0.291,-4.604,0.897,54.000
-0.306,-4.584,0.893,53.000
-0.322,-4.579,0.892,54.000
-0.337,-4.574,0.891,55.000
-0.353,-4.573,0.891,57.000
-0.368,-4.556,0.888,57.000
-0.383,-4.539,0.885,57.000
-0.399,-4.541,0.886,57.000
-0.414,-4.536,0.885,60.000
-0.430,-4.534,0.885,55.000
0,0,0,0
0,0,0,0
-0.359,-3.401,0.665,108.000
-0.371,-3.402,0.665,110.000
-0.382,-3.397,0.664,116.000
-0.392,-3.376,0.661,113.000
-0.402,-3.371,0.660,110.000
-0.414,-3.371,0.660,113.000
-0.426,-3.360,0.658,114.000
-0.437,-3.358,0.658,111.000
-0.448,-3.351,0.657,108.000
-0.459,-3.340,0.655,110.000
-0.469,-3.338,0.655,110.000
-0.480,-3.333,0.654,110.000
-0.494,-3.339,0.656,110.000
-0.501,-3.310,0.651,107.000
-0.512,-3.304,0.650,110.000
-0.524,-3.304,0.650,105.000
