# This PCD file was generated using the MATLABÂ® pcwrite function
# from Computer Vision ToolboxÂ®.
# .PCD v.7 - Point Cloud Data file format
VERSION .7
FIELDS x y z intensity
SIZE 8 8 8 8
TYPE F F F F
COUNT 1 1 1 1
WIDTH 674
HEIGHT 1
VIEWPOINT 0 0 0 1 0 0 0
POINTS 674
DATA ascii
2.892433772709574 0.628537576549497 -0.155123774304085 52.000000000000000
2.873125195917840 0.613846979118766 -0.153972383266741 102.000000000000000
2.873084992026394 0.604406614784535 -0.153867711354255 100.000000000000000
2.875177261014693 0.594373994339129 -0.153867711354255 100.000000000000000
2.888978311148379 0.586719168906151 -0.154495742829170 100.000000000000000
2.892967420611045 0.577021849711766 -0.154600414741656 92.000000000000000
2.897121857472495 0.566292573780070 -0.154705086654142 27.000000000000000
2.891234980660561 0.554671068009719 -0.154286399004198 6.000000000000000
2.897079111067493 0.545314303557174 -0.154495742829170 5.000000000000000
2.920569715651482 0.539186893144259 -0.155647133866515 7.000000000000000
2.934040393137939 0.532147577399804 -0.156275165341430 37.000000000000000
2.916215759187428 0.518406959204909 -0.155228446216571 93.000000000000000
2.921942847150696 0.508909708506221 -0.155437790041543 100.000000000000000
2.921732649529058 0.498371294406303 -0.155333118129057 100.000000000000000
2.935274386657060 0.490143239114063 -0.155961149603973 100.000000000000000
2.934996304076352 0.479572156635218 -0.155856477691487 95.000000000000000
2.934680210977163 0.469008991700173 -0.155751805779001 90.000000000000000
2.934326159259468 0.458453880782703 -0.155647133866515 77.000000000000000
2.949729271036995 0.450318303079055 -0.156379837253916 13.000000000000000
2.937455237677180 0.437957413868111 -0.155647133866515 7.000000000000000
5.205942638253751 0.757609100667975 -0.275705817487828 32.000000000000000
5.192736016415171 0.737186545803624 -0.274868442187941 73.000000000000000
5.177472044348473 0.716591627166920 -0.273926394975568 68.000000000000000
5.170045155621570 0.697179940231228 -0.273403035413139 70.000000000000000
5.164407790110471 0.678990223289398 -0.272984347763195 71.000000000000000
5.162784216085920 0.660452068935046 -0.272775003938223 70.000000000000000
5.141274326363107 0.639468346178385 -0.271518940988393 71.000000000000000
5.123646810518227 0.619122070569776 -0.270472221863534 70.000000000000000
5.119825755659011 0.600535407243723 -0.270158206126076 67.000000000000000
5.107999604880948 0.581079972990029 -0.269425502738675 66.000000000000000
5.099972462330527 0.563042201673664 -0.268902143176245 67.000000000000000
5.076089419409128 0.542477465891545 -0.267541408313929 66.000000000000000
5.064136598430958 0.522434328320370 -0.266808704926528 63.000000000000000
5.055992290339712 0.503763907867280 -0.266285345364098 66.000000000000000
5.051670839842131 0.486420576975660 -0.265971329626641 68.000000000000000
5.041405666904958 0.467677063607506 -0.265343298151725 68.000000000000000
5.031071338231395 0.449011154889028 -0.264715266676810 68.000000000000000
5.012708431854586 0.429740705828271 -0.263668547551951 75.000000000000000
5.004296982925571 0.410548799438008 -0.263145187989522 71.000000000000000
5.003708448277728 0.392921686263324 -0.263040516077036 75.000000000000000
4.991042452093296 0.375278367088374 -0.262307812689634 72.000000000000000
4.980369125017832 0.356997297850456 -0.261679781214719 71.000000000000000
4.963651230258066 0.338387792960853 -0.260737734002346 75.000000000000000
4.958822895766958 0.320672691981236 -0.260423718264888 82.000000000000000
4.943963771277081 0.302385778180376 -0.259586342965001 71.000000000000000
4.942995227054761 0.285011311532791 -0.259481671052516 75.000000000000000
4.924063092170598 0.265815800782190 -0.258434951927657 68.000000000000000
4.914987368895797 0.248122498210868 -0.257911592365227 71.000000000000000
4.901817855446660 0.231163861986323 -0.257178888977826 68.000000000000000
4.894613471871102 0.213703439354599 -0.256760201327882 68.000000000000000
4.883321409479687 0.196988129804147 -0.256132169852967 68.000000000000000
4.864020226569071 0.179205603578131 -0.255085450728108 68.000000000000000
4.860623838746222 0.162092776957623 -0.254876106903136 68.000000000000000
4.855170926670369 0.144946247126786 -0.254562091165679 70.000000000000000
4.843645552646577 0.128527248690710 -0.253934059690763 70.000000000000000
4.840071229212954 0.111526968504627 -0.253724715865792 70.000000000000000
4.824472411952756 0.093476945223153 -0.252887340565905 71.000000000000000
4.820775300713328 0.076572384025237 -0.252677996740933 78.000000000000000
4.789059526812737 0.059348286165367 -0.251003246141159 72.000000000000000
4.795229054245204 0.042684320358730 -0.251317261878616 75.000000000000000
4.795348836152099 0.025945587226720 -0.251317261878616 75.000000000000000
4.777434889748529 0.009172027817807 -0.250375214666243 78.000000000000000
4.745482923368333 -0.006625948434672 -0.248700464066469 73.000000000000000
4.755417059487535 -0.023239536800742 -0.249223823628899 75.000000000000000
4.745327888148845 -0.038927023132296 -0.248700464066469 70.000000000000000
4.741168852287654 -0.055444361827887 -0.248491120241497 71.000000000000000
4.724957605015115 -0.072575846024839 -0.247653744941610 71.000000000000000
4.716687864932060 -0.088918002950097 -0.247235057291667 71.000000000000000
4.706383226030339 -0.104337279741329 -0.246711697729237 68.000000000000000
4.701997144540186 -0.120662513878934 -0.246502353904265 68.000000000000000
4.695534110242046 -0.137719721551057 -0.246188338166808 70.000000000000000
4.673066747882212 -0.153388605766677 -0.245036947129463 67.000000000000000
4.680486624300093 -0.169989679401336 -0.245455634779407 42.000000000000000
4.665894988982897 -0.185770392245907 -0.244722931392005 18.000000000000000
4.655311257514164 -0.199999161948608 -0.244199571829576 16.000000000000000
4.678526053113958 -0.217360303848173 -0.245455634779407 82.000000000000000
4.665729439447563 -0.233906482450787 -0.244827603304491 68.000000000000000
4.644940601220624 -0.249121840954949 -0.243780884179632 65.000000000000000
4.648030719491584 -0.265562044164468 -0.243990228004604 65.000000000000000
4.647075417572547 -0.281785081278614 -0.243990228004604 65.000000000000000
4.644122247857500 -0.297066293080583 -0.243885556092118 66.000000000000000
4.623129716139921 -0.311930965125927 -0.242838836967259 66.000000000000000
4.611994268600342 -0.328164708351865 -0.242315477404830 67.000000000000000
4.606897194675406 -0.343160105162140 -0.242106133579858 65.000000000000000
4.601688853373336 -0.358928460623934 -0.241896789754886 65.000000000000000
4.602463987174059 -0.374348152548814 -0.242001461667372 66.000000000000000
4.571277611513181 -0.387878522938097 -0.240431382980084 63.000000000000000
4.569966225543476 -0.403035293082631 -0.240431382980084 67.000000000000000
4.560575878872818 -0.418255375487019 -0.240012695330140 65.000000000000000
4.555187225520622 -0.432998490829500 -0.239803351505169 65.000000000000000
4.555478611246762 -0.450682552106365 -0.239908023417655 67.000000000000000
4.528129435831882 -0.463144689568752 -0.238547288555338 66.000000000000000
4.516554314041400 -0.477897203947458 -0.238023928992909 65.000000000000000
4.516930180070818 -0.493088752453593 -0.238128600905394 66.000000000000000
4.509049711379202 -0.509755748758691 -0.237814585167937 65.000000000000000
4.507334508114334 -0.524705493627728 -0.237814585167937 65.000000000000000
4.491594177407606 -0.538770755339873 -0.237081881780536 66.000000000000000
4.473924900208750 -0.551706915354374 -0.236244506480648 62.000000000000000
4.468107929819802 -0.566037922290994 -0.236035162655677 62.000000000000000
4.464225733957189 -0.580594006007706 -0.235930490743191 62.000000000000000
4.462067765206146 -0.596952311534101 -0.235930490743191 65.000000000000000
4.446212536644072 -0.609845947606460 -0.235197787355790 66.000000000000000
4.437905097565841 -0.626076639741074 -0.234883771618332 63.000000000000000
4.423944111525955 -0.639076479229741 -0.234255740143417 65.000000000000000
4.421800533204353 -0.653743292710188 -0.234255740143417 65.000000000000000
4.427507540360995 -0.669597560469265 -0.234674427793360 65.000000000000000
4.414915998538216 -0.685832343286328 -0.234151068230931 67.000000000000000
4.396715054660083 -0.698731313751046 -0.233313692931044 68.000000000000000
4.394498232207529 -0.712540530647756 -0.233313692931044 67.000000000000000
4.384102695872349 -0.726569658436078 -0.232895005281100 67.000000000000000
4.387447479104116 -0.742868878482943 -0.233209021018558 66.000000000000000
4.371051264473878 -0.755797330692540 -0.232476317631157 67.000000000000000
4.360384589137705 -0.770422930070173 -0.232057629981213 67.000000000000000
4.357668746291452 -0.785638819027030 -0.232057629981213 67.000000000000000
4.357003898225138 -0.800445935982166 -0.232162301893699 70.000000000000000
4.350257051351548 -0.814914358941664 -0.231952958068727 70.000000000000000
4.331691431962787 -0.827097893638715 -0.231115582768840 70.000000000000000
4.322896439628681 -0.841068967981536 -0.230801567031382 67.000000000000000
4.308179301421037 -0.853823898902331 -0.230173535556467 68.000000000000000
4.303214866353978 -0.868461934670536 -0.230068863643981 66.000000000000000
4.306026338100546 -0.884683505256156 -0.230382879381439 68.000000000000000
4.279452217118722 -0.894803678685757 -0.229126816431608 65.000000000000000
4.276461411309527 -0.908989933702482 -0.229126816431608 67.000000000000000
4.273262390644660 -0.923912031902279 -0.229126816431608 68.000000000000000
4.271961969191964 -0.939251754605264 -0.229231488344094 70.000000000000000
4.264759025263541 -0.953286585321032 -0.229022144519122 70.000000000000000
4.247772070479863 -0.965070136476610 -0.228289441131721 67.000000000000000
4.240485329263199 -0.978993177461482 -0.228080097306749 67.000000000000000
4.221659004354254 -0.989403859022980 -0.227242722006862 61.000000000000000
4.198749958580420 -0.999508956238577 -0.226196002882003 43.000000000000000
4.193294101144555 -1.013689938475621 -0.226091330969517 45.000000000000000
4.174212596995629 -1.024512494085941 -0.225253955669630 53.000000000000000
4.168672934035802 -1.038594131054564 -0.225149283757144 58.000000000000000
4.165022166980319 -1.053139187660499 -0.225149283757144 46.000000000000000
4.163255248607984 -1.068167772586901 -0.225253955669630 45.000000000000000
4.182695528359307 -1.088731063444075 -0.226510018619461 42.000000000000000
7.077429447040449 -1.868616106692580 -0.383622559260778 22.000000000000000
7.068934347152236 -1.892792969591575 -0.383517887348292 23.000000000000000
7.174078000441454 -1.947809375963649 -0.389588858272474 1.000000000000000
7.261591570627506 -1.998812080706176 -0.394717781984282 37.000000000000000
7.260341510962571 -2.025757888540103 -0.395031797721740 81.000000000000000
7.220553874360252 -2.041849729253665 -0.393252375209480 61.000000000000000
7.209542529238273 -2.065941357973331 -0.393043031384508 60.000000000000000
7.204205177609731 -2.091651654146416 -0.393147703296994 58.000000000000000
7.191111769536736 -2.115095556221658 -0.392833687559536 58.000000000000000
7.176028425479919 -2.137903296351390 -0.392414999909593 61.000000000000000
7.157049336856400 -2.159477659335264 -0.391786968434677 60.000000000000000
7.143737479209679 -2.182696441432352 -0.391472952697220 62.000000000000000
7.130350800422866 -2.205848623307026 -0.391158936959762 62.000000000000000
7.120701541903535 -2.230127824345717 -0.391054265047276 62.000000000000000
7.115170998896547 -2.254331906019613 -0.391158936959762 62.000000000000000
7.090141805331601 -2.273665753633332 -0.390216889747389 62.000000000000000
7.076462870452860 -2.296551543497525 -0.389902874009932 63.000000000000000
7.057017949730970 -2.317500108768980 -0.389274842535016 62.000000000000000
7.053085002655203 -2.342148162242462 -0.389484186359988 62.000000000000000
7.048652954748228 -2.368025860511463 -0.389693530184960 62.000000000000000
7.022491104573833 -2.389283359224685 -0.388751482972587 62.000000000000000
7.004665370762010 -2.410532299688378 -0.388228123410157 62.000000000000000
6.999980925721258 -2.436281464360496 -0.388437467235129 63.000000000000000
6.980130215500543 -2.456722616860048 -0.387809435760214 62.000000000000000
6.979472116778662 -2.482533362374534 -0.388228123410157 61.000000000000000
6.959487424686068 -2.502825793851478 -0.387600091935242 53.000000000000000
nan nan nan nan
3.931150109934401 -1.444823823149988 -0.219497000482906 66.000000000000000
3.950677956555882 -1.466889751931485 -0.220857735345223 82.000000000000000
3.943663565801423 -1.479969514806121 -0.220753063432737 86.000000000000000
3.901124278729097 -1.479561195160650 -0.218659625183019 82.000000000000000
3.895935879365191 -1.493169646152038 -0.218659625183019 77.000000000000000
3.903737299852729 -1.511808883392001 -0.219392328570421 93.000000000000000
3.890996555163036 -1.522515140250309 -0.218973640920477 87.000000000000000
3.885390123142848 -1.536766129105544 -0.218973640920477 81.000000000000000
3.865164652881073 -1.544390745808791 -0.218136265620590 82.000000000000000
3.854465363049792 -1.554957952005546 -0.217822249883132 83.000000000000000
3.852713260753764 -1.569910428832552 -0.218031593708104 86.000000000000000
3.854597603472937 -1.586389860619160 -0.218450281358048 83.000000000000000
3.849036585933190 -1.599835252368931 -0.218450281358048 83.000000000000000
3.832379041874237 -1.608623121448574 -0.217822249883132 86.000000000000000
3.823062761080242 -1.620431963384592 -0.217612906058160 83.000000000000000
3.819219269657762 -1.634552913342796 -0.217717577970646 92.000000000000000
3.818990573689127 -1.650251260329380 -0.218031593708104 87.000000000000000
3.813497145196805 -1.662906415803645 -0.218031593708104 83.000000000000000
3.796701443036639 -1.671379622818173 -0.217403562233189 87.000000000000000
3.783543494029677 -1.681378063669144 -0.216984874583245 83.000000000000000
3.784940583897043 -1.697844653523232 -0.217403562233189 87.000000000000000
3.775053643522280 -1.710057501962785 -0.217194218408217 87.000000000000000
3.776327090552168 -1.726546358566351 -0.217612906058160 87.000000000000000
3.761512636859194 -1.734877174773724 -0.217089546495731 87.000000000000000
3.753623148687645 -1.747153920477057 -0.216984874583245 95.000000000000000
3.749309342307499 -1.761094995872733 -0.217089546495731 98.000000000000000
3.746748715997064 -1.775882668263798 -0.217298890320703 87.000000000000000
3.744130492636986 -1.790673901687502 -0.217508234145675 98.000000000000000
3.727064406176775 -1.798524364555470 -0.216880202670759 100.000000000000000
3.722559413372358 -1.812397577275731 -0.216984874583245 100.000000000000000
3.710832268318279 -1.822739042028464 -0.216670858845787 98.000000000000000
3.711605465952768 -1.839228369156969 -0.217089546495731 100.000000000000000
3.714095156255609 -1.856638304408144 -0.217612906058160 100.000000000000000
3.696891531385461 -1.864195957879039 -0.216984874583245 100.000000000000000
3.686801343499917 -1.875278172120520 -0.216775530758273 100.000000000000000
3.680562425698392 -1.887493735036394 -0.216775530758273 100.000000000000000
3.670403422266909 -1.898494615343571 -0.216566186933302 100.000000000000000
3.680791310845862 -1.921817876157500 -0.217612906058160 103.000000000000000
3.651086566699012 -1.922557120327795 -0.216252171195844 100.000000000000000
3.644353346297290 -1.935290077943052 -0.216252171195844 100.000000000000000
3.637575720600131 -1.947999454659451 -0.216252171195844 100.000000000000000
3.638468816805982 -1.963211248963672 -0.216670858845787 102.000000000000000
3.631593763884253 -1.975899914733546 -0.216670858845787 100.000000000000000
3.615919208816981 -1.983761208881231 -0.216147499283358 105.000000000000000
3.607224874058522 -1.995404270997504 -0.216042827370872 100.000000000000000
3.605470540409620 -2.010902259852170 -0.216356843108330 111.000000000000000
3.600170110467588 -2.024454392721823 -0.216461515020816 102.000000000000000
3.601768846819298 -2.041934068055107 -0.216984874583245 117.000000000000000
3.587683151740970 -2.050529855766833 -0.216566186933302 117.000000000000000
3.568389774089915 -2.056060876421455 -0.215833483545900 108.000000000000000
3.568099269476630 -2.072516972575478 -0.216252171195844 108.000000000000000
3.559119552513958 -2.083950160024560 -0.216147499283358 105.000000000000000
3.556983559741908 -2.099406670524001 -0.216461515020816 108.000000000000000
3.542767763516172 -2.107725330903488 -0.216042827370872 108.000000000000000
3.533675963160850 -2.119051887141151 -0.215938155458386 111.000000000000000
3.534803994650532 -2.136539522666860 -0.216461515020816 108.000000000000000
3.523913205688383 -2.146787068441606 -0.216252171195844 102.000000000000000
3.523206179367412 -2.163254944890757 -0.216670858845787 100.000000000000000
3.505443303692922 -2.169234137048384 -0.216042827370872 100.000000000000000
3.497849907122280 -2.181457201960711 -0.216042827370872 100.000000000000000
3.493595880558205 -2.195779319922615 -0.216252171195844 100.000000000000000
3.489670127713625 -2.209489265024400 -0.216461515020816 100.000000000000000
3.485303753859573 -2.223805630503574 -0.216670858845787 100.000000000000000
3.470800144533940 -2.231637370890768 -0.216252171195844 100.000000000000000
3.466341492295871 -2.245911189540434 -0.216461515020816 98.000000000000000
3.458480681085049 -2.257997296516626 -0.216461515020816 90.000000000000000
3.450577729378556 -2.270055890508341 -0.216461515020816 90.000000000000000
3.452621029603297 -2.288707966242820 -0.217089546495731 98.000000000000000
3.437967497898190 -2.296308607814439 -0.216670858845787 98.000000000000000
3.426616996795090 -2.306065126961919 -0.216461515020816 98.000000000000000
3.423505657823334 -2.321374890041694 -0.216775530758273 92.000000000000000
3.417030836266620 -2.334437671408798 -0.216880202670759 86.000000000000000
3.420377733729862 -2.354277974607480 -0.217612906058160 92.000000000000000
3.402291489069497 -2.359374109294106 -0.216984874583245 92.000000000000000
3.389123235766340 -2.367804348276208 -0.216670858845787 87.000000000000000
3.385737172828613 -2.383068895506088 -0.216984874583245 81.000000000000000
3.379027315017336 -2.396028074369957 -0.217089546495731 87.000000000000000
3.375518598548062 -2.411291330798592 -0.217403562233189 82.000000000000000
3.360596547703338 -2.418392939074728 -0.216984874583245 82.000000000000000
3.355792889186782 -2.431867750592839 -0.217194218408217 78.000000000000000
3.348896790685978 -2.444744460592671 -0.217298890320703 83.000000000000000
3.349566790644733 -2.464103522940265 -0.217926921795618 83.000000000000000
3.340945057487981 -2.475780680836514 -0.217926921795618 87.000000000000000
3.325880536016209 -2.482648752487423 -0.217508234145675 83.000000000000000
3.315597872380570 -2.493042807453124 -0.217403562233189 81.000000000000000
3.314119642876731 -2.508268019999947 -0.217822249883132 78.000000000000000
3.321227403286799 -2.531929878583173 -0.218868969007991 86.000000000000000
3.302864438752067 -2.536209256432062 -0.218240937533076 82.000000000000000
3.286092034443185 -2.541613306034504 -0.217717577970646 73.000000000000000
3.296107052179793 -2.567797664371683 -0.218973640920477 90.000000000000000
3.276124704792282 -2.570657077837176 -0.218240937533076 78.000000000000000
3.281234203555900 -2.593222882941795 -0.219182984745449 78.000000000000000
3.269036901743282 -2.602172991870970 -0.218973640920477 72.000000000000000
3.263050278236477 -2.616066838002982 -0.219182984745449 82.000000000000000
3.243021214163946 -2.618657839248418 -0.218450281358048 81.000000000000000
3.236959686754532 -2.632482469958882 -0.218659625183019 77.000000000000000
3.246292299898763 -2.658952311293126 -0.219915688132850 86.000000000000000
3.232368974789472 -2.666454934233767 -0.219601672395392 73.000000000000000
3.230722841466069 -2.684103368340157 -0.220125031957822 86.000000000000000
3.206484231006449 -2.681987988256704 -0.219078312832963 81.000000000000000
3.204740419084167 -2.699598109306159 -0.219601672395392 83.000000000000000
3.198343580253061 -2.713352439290223 -0.219811016220364 73.000000000000000
3.208593244200648 -2.741366164851565 -0.221171751082681 86.000000000000000
3.177809055874826 -2.734312112153772 -0.219706344307878 81.000000000000000
3.171263979008789 -2.748003978445882 -0.219915688132850 77.000000000000000
3.175195823903258 -2.770875915772030 -0.220857735345223 82.000000000000000
3.161003600547696 -2.777987167908822 -0.220543719607765 77.000000000000000
3.167739261416879 -2.803564739683051 -0.221695110645110 82.000000000000000
3.144514713531206 -2.802645054474578 -0.220753063432737 78.000000000000000
3.134712499145716 -2.813604384536795 -0.220753063432737 81.000000000000000
3.124872089277679 -2.824529431717504 -0.220753063432737 82.000000000000000
3.121397370190702 -2.840253072155646 -0.221171751082681 77.000000000000000
3.126189358640713 -2.864624765204021 -0.222218470207540 75.000000000000000
3.114201407581495 -2.874708864150312 -0.222113798295054 78.000000000000000
3.104147828235808 -2.885561941990824 -0.222113798295054 66.000000000000000
3.094561892350188 -2.895839801339322 -0.222113798295054 82.000000000000000
3.088795324141661 -2.910733466517559 -0.222427814032511 82.000000000000000
3.083473002298980 -2.925083985352222 -0.222741829769969 76.000000000000000
3.074687961673218 -2.937209113262057 -0.222846501682455 75.000000000000000
3.066780154510024 -2.951228485510474 -0.223055845507427 81.000000000000000
3.057894045007505 -2.963305484247703 -0.223160517419912 76.000000000000000
3.050909891045152 -2.976218866583958 -0.223369861244884 70.000000000000000
3.043351941729172 -2.989649694836105 -0.223579205069856 70.000000000000000
3.032897575649376 -3.000254761629496 -0.223579205069856 71.000000000000000
3.020991270468121 -3.009413709808856 -0.223474533157370 68.000000000000000
3.016108272503804 -3.025598571226965 -0.223893220807314 68.000000000000000
3.011149024221607 -3.041785942773346 -0.224311908457257 67.000000000000000
3.008913740828581 -3.060824092246444 -0.224939939932173 67.000000000000000
2.987049813759991 -3.059875071084052 -0.224102564632285 68.000000000000000
2.979667315991414 -3.072631258992330 -0.224311908457257 67.000000000000000
2.973079894254179 -3.087329450603097 -0.224625924194715 70.000000000000000
2.971405158649458 -3.108311578996818 -0.225358627582116 75.000000000000000
2.971537625658737 -3.130252946260835 -0.226196002882003 75.000000000000000
2.954289673163600 -3.132824346352037 -0.225672643319574 71.000000000000000
2.946066444299940 -3.146033349100663 -0.225881987144546 71.000000000000000
2.941867222877812 -3.163610889780804 -0.226405346706975 68.000000000000000
2.934871155684501 -3.178262674831001 -0.226719362444433 70.000000000000000
2.932974020620198 -3.196296694120412 -0.227347393919348 70.000000000000000
2.919108571713226 -3.203562618827622 -0.227138050094376 70.000000000000000
2.906786285643451 -3.214747547754640 -0.227138050094376 70.000000000000000
2.903553134203970 -3.233791243871637 -0.227766081569292 78.000000000000000
2.890154695311002 -3.240420924552692 -0.227556737744320 72.000000000000000
2.902661632699385 -3.277402683618310 -0.229440832169066 82.000000000000000
2.872167802759384 -3.267019332389790 -0.227975425394263 68.000000000000000
2.863373226788563 -3.280034371040465 -0.228184769219235 70.000000000000000
2.863524506756776 -3.301083497357076 -0.229022144519122 71.000000000000000
2.862411859310147 -3.323165200351797 -0.229859519819009 70.000000000000000
2.855404267826860 -3.339706336557309 -0.230278207468953 71.000000000000000
2.841143912784891 -3.346608071589341 -0.230068863643981 71.000000000000000
2.832019324384782 -3.359559270719308 -0.230278207468953 71.000000000000000
2.824120850004365 -3.374019065027248 -0.230592223206410 75.000000000000000
2.811049530818322 -3.382320508760904 -0.230487551293925 73.000000000000000
2.813209320389764 -3.409057453324572 -0.231638942331269 75.000000000000000
2.787368167641364 -3.401862752481080 -0.230487551293925 72.000000000000000
2.785559943919391 -3.423966205611289 -0.231324926593812 70.000000000000000
2.781722085358301 -3.442505492380954 -0.231952958068727 71.000000000000000
2.778437567669024 -3.463099488250108 -0.232685661456128 75.000000000000000
2.769458435064088 -3.477946970107517 -0.232999677193586 70.000000000000000
2.754823902437793 -3.484459488535853 -0.232790333368614 70.000000000000000
2.744487348880609 -3.495146507422744 -0.232895005281100 68.000000000000000
2.739638210306224 -3.514156153037931 -0.233523036756015 68.000000000000000
2.732244748831640 -3.530015566830250 -0.233941724405959 67.000000000000000
2.722339969629505 -3.542698740650120 -0.234151068230931 68.000000000000000
2.711168482531793 -3.553767818461993 -0.234255740143417 66.000000000000000
2.701158749384098 -3.566394192321627 -0.234465083968388 66.000000000000000
2.697095420484916 -3.586975647202282 -0.235197787355790 65.000000000000000
2.689337026876415 -3.602770494019483 -0.235616475005733 65.000000000000000
2.683879441233435 -3.621764166546770 -0.236244506480648 67.000000000000000
2.666486665314322 -3.624675302268292 -0.235825818830705 65.000000000000000
2.657351654497983 -3.638799824511779 -0.236139834568163 66.000000000000000
2.655184083577280 -3.662606949107327 -0.237081881780536 65.000000000000000
2.647691433919608 -3.677875412553955 -0.237500569430479 67.000000000000000
2.641804518796571 -3.696845094657991 -0.238128600905394 67.000000000000000
2.625926621525033 -3.703244497123627 -0.237919257080423 65.000000000000000
2.617582187683241 -3.718921149315366 -0.238337944730366 68.000000000000000
2.607523713527553 -3.730855032631846 -0.238547288555338 63.000000000000000
2.608145887645357 -3.759626760911979 -0.239803351505169 67.000000000000000
2.597271843380581 -3.771997995447877 -0.240012695330140 67.000000000000000
2.586343183612595 -3.784339084765638 -0.240222039155112 67.000000000000000
2.573779642382384 -3.792894900252597 -0.240222039155112 67.000000000000000
2.567218469229989 -3.811795452896435 -0.240850070630028 67.000000000000000
2.559888003096269 -3.831143137212128 -0.241478102104943 67.000000000000000
2.548706850449733 -3.843384520048765 -0.241687445929915 67.000000000000000
2.540765392965029 -3.860599583434419 -0.242210805492344 66.000000000000000
2.528366073123502 -3.871117178501331 -0.242315477404830 67.000000000000000
2.519590889619828 -3.888739004896721 -0.242838836967259 66.000000000000000
2.512482344962211 -3.907590094959316 -0.243466868442175 66.000000000000000
2.507032667363708 -3.927685040057243 -0.244199571829576 65.000000000000000
2.489032362687215 -3.929663188875645 -0.243780884179632 65.000000000000000
2.480239891716155 -3.944658749329033 -0.244199571829576 65.000000000000000
2.471741369215142 -3.961764921163466 -0.244722931392005 62.000000000000000
2.463510085872780 -3.980987937914829 -0.245350962866921 62.000000000000000
2.454824089636904 -3.998073099195192 -0.245874322429350 62.000000000000000
2.442931460748413 -4.010029015766402 -0.246083666254322 61.000000000000000
2.435117821530849 -4.028787725044150 -0.246711697729237 58.000000000000000
2.432338763330219 -4.056105031878280 -0.247863088766582 23.000000000000000
2.418165495920283 -4.064570767444908 -0.247863088766582 11.000000000000000
3.398835528421528 -5.756285009750712 -0.350336891090266 8.000000000000000
3.374683726605276 -5.761220616873357 -0.349918203440322 8.000000000000000
3.333480182085883 -5.736700847383566 -0.347720093278119 7.000000000000000
3.157837257595353 -5.478363594855924 -0.331391274930320 7.000000000000000
3.074255551199850 -5.376653205800191 -0.324587600618738 10.000000000000000
3.049556896146661 -5.376927834249265 -0.323959569143822 16.000000000000000
3.029790089489820 -5.385799292506967 -0.323854897231336 23.000000000000000
3.008052188851097 -5.391110027364521 -0.323540881493879 18.000000000000000
2.995017800816806 -5.412062350773048 -0.324168912968794 16.000000000000000
2.979951790168964 -5.429487472846158 -0.324587600618738 10.000000000000000
2.959071492738994 -5.436347914489917 -0.324378256793766 2.000000000000000
3.757871982050521 -6.961650988896265 -0.414605445356601 8.000000000000000
3.715232582026054 -6.934690863715747 -0.412302663281912 10.000000000000000
3.674136626289284 -6.915868755962395 -0.410418568857166 11.000000000000000
3.629222056765927 -6.892176965211105 -0.408220458694962 11.000000000000000
3.590351433860381 -6.876475926563408 -0.406545708095188 11.000000000000000
3.544289148808934 -6.846398417715221 -0.404033582195526 11.000000000000000
3.497568847031416 -6.814306767785747 -0.401416784383379 12.000000000000000
3.464360307906287 -6.802124580911839 -0.400056049521063 11.000000000000000
2.245118999992385 -4.446508367228266 -0.261051749739804 3.000000000000000
2.238749393504051 -4.476532113644135 -0.262307812689634 46.000000000000000
2.203593215059537 -4.444952004982562 -0.260005030614945 8.000000000000000
2.188064012008783 -4.452616900588568 -0.260005030614945 12.000000000000000
2.187376360052126 -4.490752449154373 -0.261784453127205 22.000000000000000
2.175947027455165 -4.505175251494178 -0.262203140777149 10.000000000000000
2.167969000010817 -4.528956725895056 -0.263145187989522 11.000000000000000
2.168353352321487 -4.568599262239920 -0.265029282414268 46.000000000000000
2.154092906745236 -4.579755039329132 -0.265238626239239 45.000000000000000
2.143196920531973 -4.600292405015022 -0.265971329626641 36.000000000000000
2.138008426335970 -4.631319200423619 -0.267332064488957 30.000000000000000
2.125963077431192 -4.645648127885748 -0.267750752138901 22.000000000000000
2.108084268917072 -4.649402790679872 -0.267541408313929 16.000000000000000
2.097570813032284 -4.669486233549248 -0.268274111701330 13.000000000000000
2.088566845061319 -4.693202232323935 -0.269216158913703 15.000000000000000
2.082645439898722 -4.724222276335396 -0.270576893776020 17.000000000000000
2.072536388867304 -4.746106110419663 -0.271414269075907 17.000000000000000
2.057542534848572 -4.756977961921159 -0.271623612900878 13.000000000000000
2.045643949584860 -4.775146476670797 -0.272251644375794 8.000000000000000
2.029797745588457 -4.781903821088281 -0.272251644375794 7.000000000000000
2.021607079241222 -4.809213199410966 -0.273403035413139 2.000000000000000
2.011715311925414 -4.832835635463307 -0.274345082625512 2.000000000000000
2.003205370234988 -4.860140526534293 -0.275496473662856 1.000000000000000
2.014256421406936 -4.933323252848205 -0.279264662512348 1.000000000000000
nan nan nan nan
nan nan nan nan
nan nan nan nan
nan nan nan nan
1.927851277902478 -4.967725505557010 -0.279264662512348 1.000000000000000
1.919091883438160 -4.996798421540332 -0.280520725462179 7.000000000000000
1.906605075405126 -5.016535616857491 -0.281253428849580 18.000000000000000
1.897519025098756 -5.045593516766040 -0.282509491799411 22.000000000000000
1.872929902643152 -5.033467620575647 -0.281462772674552 10.000000000000000
1.861060153984287 -5.052770014214198 -0.282195476061953 7.000000000000000
1.854351483715623 -5.089260680025802 -0.283870226661727 7.000000000000000
1.850796620690389 -5.135160443015176 -0.286068336823931 7.000000000000000
1.836884132504670 -5.152877436554920 -0.286696368298846 2.000000000000000
1.872273927529579 -5.307737910255360 -0.294965449385231 1.000000000000000
nan nan nan nan
nan nan nan nan
nan nan nan nan
nan nan nan nan
nan nan nan nan
1.759773388876902 -5.346091002168750 -0.294965449385231 1.000000000000000
1.741101327612574 -5.352201187423237 -0.294965449385231 1.000000000000000
1.724278327356657 -5.357644597533239 -0.294965449385231 1.000000000000000
1.705566152766376 -5.363630811512540 -0.294965449385231 1.000000000000000
1.681445865387390 -5.352402641874614 -0.294023402172858 3.000000000000000
1.663936124453272 -5.362054425770220 -0.294232745997830 7.000000000000000
1.651061677514436 -5.386925781419313 -0.295279465122689 7.000000000000000
1.641505435784766 -5.423242028349254 -0.296954215722463 7.000000000000000
1.627518137912607 -5.442050276224610 -0.297686919109865 7.000000000000000
1.610774245395102 -5.455360242696186 -0.298105606759808 7.000000000000000
1.596192799344937 -5.476289404404832 -0.298942982059695 7.000000000000000
1.582589201611196 -5.501021868537411 -0.299989701184554 7.000000000000000
1.566232408704652 -5.520235328073585 -0.300722404571955 6.000000000000000
1.554491885094696 -5.552595204573101 -0.302187811346758 2.000000000000000
1.544671353668174 -5.592640761328893 -0.304071905771504 2.000000000000000
1.541415143507297 -5.657736276967964 -0.307316735058566 1.000000000000000
1.531979955337854 -5.697534226618552 -0.309200829483312 1.000000000000000
1.524367546678083 -5.749180342977689 -0.311712955382973 1.000000000000000
nan nan nan nan
nan nan nan nan
nan nan nan nan
nan nan nan nan
nan nan nan nan
nan nan nan nan
nan nan nan nan
nan nan nan nan
nan nan nan nan
nan nan nan nan
nan nan nan nan
nan nan nan nan
nan nan nan nan
nan nan nan nan
0.527930675770981 -2.509551788953666 -0.134398735631880 1.000000000000000
0.525636865742087 -2.542673768244287 -0.136073486231654 1.000000000000000
0.504832889234966 -2.485774021110055 -0.132933328857077 1.000000000000000
0.503966273614202 -2.526694632761170 -0.135026767106795 24.000000000000000
0.496678721434163 -2.536278528959362 -0.135445454756739 73.000000000000000
0.482167611733156 -2.508576444495525 -0.133875376069450 42.000000000000000
0.474148386798674 -2.514169563730149 -0.134084719894422 7.000000000000000
0.470092127010797 -2.541340575544373 -0.135445454756739 1.000000000000000
nan nan nan nan
nan nan nan nan
nan nan nan nan
nan nan nan nan
nan nan nan nan
nan nan nan nan
nan nan nan nan
nan nan nan nan
nan nan nan nan
nan nan nan nan
nan nan nan nan
nan nan nan nan
nan nan nan nan
nan nan nan nan
nan nan nan nan
nan nan nan nan
nan nan nan nan
0.060857974429072 -0.503640205058680 -0.026586665771415 36.000000000000000
nan nan nan nan
nan nan nan nan
nan nan nan nan
nan nan nan nan
nan nan nan nan
nan nan nan nan
nan nan nan nan
nan nan nan nan
nan nan nan nan
0.169917325527971 -1.981999840463346 -0.104253224835944 2.000000000000000
0.165943563516450 -2.018410662671899 -0.106137319260690 4.000000000000000
0.157800062511620 -2.005039901653813 -0.105404615873289 7.000000000000000
0.150500701885003 -2.001595237172292 -0.105195272048317 13.000000000000000
0.144940902927284 -2.022029864757240 -0.106241991173176 20.000000000000000
0.138561039269398 -2.032486653899328 -0.106765350735605 22.000000000000000
0.131852155907076 -2.038937227640514 -0.107079366473063 18.000000000000000
0.125090071437159 -2.039363254377105 -0.107079366473063 21.000000000000000
0.118201239680822 -2.043775330015630 -0.107288710298035 20.000000000000000
0.111465700492599 -2.058155186519980 -0.108021413685436 12.000000000000000
0.104887002341360 -2.070499943203620 -0.108649445160351 9.000000000000000
0.097925968413455 -2.068841351314995 -0.108544773247865 7.000000000000000
0.089566690696124 -2.043231115129443 -0.107184038385549 6.000000000000000
0.082272933657473 -2.039540041065893 -0.106974694560577 6.000000000000000
0.077212098382042 -2.095700138653067 -0.109905508110182 6.000000000000000
0.070095972951285 -2.101945339712432 -0.110219523847640 5.000000000000000
0.062519988995066 -2.094191736051487 -0.109800836197696 5.000000000000000
0.055262145369336 -2.096393778510187 -0.109905508110182 4.000000000000000
0.048035350743201 -2.100567381557249 -0.110114851935154 4.000000000000000
0.041317834008327 -2.094717310990470 -0.109800836197696 3.000000000000000
0.034070488761842 -2.098842767357028 -0.110010180022668 2.000000000000000
0.026553300078081 -2.112933254040219 -0.110742883410069 2.000000000000000
0.019050740756421 -2.099032831941419 -0.110010180022668 2.000000000000000
0.011645549580529 -2.085105947973675 -0.109277476635267 2.000000000000000
0.004400564976113 -2.101111932861072 -0.110114851935154 1.000000000000000
-0.002933711175621 -2.101114493006518 -0.110114851935154 1.000000000000000
-0.010248430760512 -2.097096981294377 -0.109905508110182 1.000000000000000
-0.017066642787205 -2.037132761895080 -0.106765350735605 1.000000000000000
-0.024177459169685 -2.037060777284370 -0.106765350735605 1.000000000000000
-0.031660285865785 -2.084898093288765 -0.109277476635267 1.000000000000000
-0.088616937944413 -4.744660063427355 -0.248700464066469 1.000000000000000
-0.104470080691362 -4.712373531366821 -0.247025713466695 1.000000000000000
-0.120713750615190 -4.703993746300076 -0.246607025816751 1.000000000000000
-0.136022805162139 -4.693585476549741 -0.246083666254322 2.000000000000000
-0.152405647250854 -4.693082073423485 -0.246083666254322 2.000000000000000
-0.168355871034359 -4.680545676739338 -0.245455634779407 2.000000000000000
-0.184614238402695 -4.677933784054587 -0.245350962866921 5.000000000000000
-0.202229118816380 -4.669208879891730 -0.244932275216977 7.000000000000000
-0.217872755697482 -4.654509000038891 -0.244199571829576 7.000000000000000
-0.232593882386553 -4.655796336005900 -0.244304243742062 7.000000000000000
-0.248204525030198 -4.642989599097726 -0.243676212267146 7.000000000000000
-0.264977962144425 -4.652065052070536 -0.244199571829576 8.000000000000000
-0.279286477737112 -4.619213869744575 -0.242524821229802 8.000000000000000
-0.294898856607460 -4.610238094117768 -0.242106133579858 10.000000000000000
-0.311258700114881 -4.613166074510310 -0.242315477404830 10.000000000000000
-0.327642574713068 -4.616035967615812 -0.242524821229802 10.000000000000000
-0.343011743681307 -4.604905453562273 -0.242001461667372 11.000000000000000
-0.357841269267655 -4.587750375669479 -0.241164086367485 11.000000000000000
-0.373204275603613 -4.578510699088462 -0.240745398717542 11.000000000000000
-0.389643733942293 -4.573131986603516 -0.240536054892570 11.000000000000000
-0.405781073034421 -4.573733459808274 -0.240640726805056 13.000000000000000
-0.419416844636819 -4.564480570923602 -0.240222039155112 13.000000000000000
-0.433450361844296 -4.543106420733007 -0.239175320030253 12.000000000000000
-0.337618648327498 -3.412633846208853 -0.179721673738269 8.000000000000000
-0.350343184779031 -3.419381976772676 -0.180140361388213 50.000000000000000
-0.362908432097618 -3.424096623591197 -0.180454377125670 56.000000000000000
-0.374423678153925 -3.418838199916474 -0.180245033300699 57.000000000000000
-0.384030592488106 -3.391643393961907 -0.178884298438382 61.000000000000000
-0.394014203225167 -3.374411963708307 -0.178046923138495 61.000000000000000
-0.405678418090733 -3.377052816344993 -0.178256266963467 61.000000000000000
-0.417464060751645 -3.375616160239342 -0.178256266963467 61.000000000000000
-0.429748720816056 -3.378100955081549 -0.178465610788438 58.000000000000000
-0.438948210560350 -3.356776281691518 -0.177418891663580 58.000000000000000
-0.449015139115650 -3.347384102941293 -0.177000204013636 60.000000000000000
-0.460696954617995 -3.345796354201020 -0.177000204013636 60.000000000000000
-0.472373156673336 -3.344167837988040 -0.177000204013636 58.000000000000000
-0.484043603010834 -3.342498574145308 -0.177000204013636 58.000000000000000
-0.493656136610143 -3.326959180244045 -0.176267500626235 56.000000000000000
-0.504066226177560 -3.317317355123254 -0.175848812976291 57.000000000000000
-0.515642753754023 -3.315537625404935 -0.175848812976291 58.000000000000000
-0.527526815647200 -3.315689947797988 -0.175953484888777 61.000000000000000
-0.539033794427122 -3.309791619626113 -0.175744141063805 62.000000000000000
-0.547960449902696 -3.292128637922954 -0.174906765763918 60.000000000000000
-0.557871163604215 -3.284386264807639 -0.174592750026461 56.000000000000000
-0.571380370743649 -3.294226183743141 -0.175220781501376 60.000000000000000
-0.581831304550199 -3.286311603657727 -0.174906765763918 62.000000000000000
-0.592944071754568 -3.282295165849084 -0.174802093851432 55.000000000000000
-0.602226318473114 -3.268420238790229 -0.174174062376517 60.000000000000000
-0.612894027297387 -3.262372325164998 -0.173964718551545 57.000000000000000
-0.622024386366252 -3.248443328069460 -0.173336687076630 57.000000000000000
-0.634889634622486 -3.254093456187538 -0.173755374726574 57.000000000000000
-0.648010879226419 -3.263724303314508 -0.174383406201489 55.000000000000000
-0.653858283288377 -3.234035360173023 -0.172917999426686 53.000000000000000
-0.662324786519936 -3.218039480955631 -0.172185296039285 52.000000000000000
-0.673553805479127 -3.215707930604465 -0.172185296039285 51.000000000000000
-0.685607170124079 -3.217243990812715 -0.172394639864257 52.000000000000000
-0.698102547819899 -3.220686969111965 -0.172708655601715 50.000000000000000
-0.705041556386597 -3.198726087575018 -0.171661936476856 50.000000000000000
-0.715766189692050 -3.194296615323773 -0.171557264564370 52.000000000000000
-0.727799023920480 -3.195673452188571 -0.171766608389342 51.000000000000000
-0.739399876409672 -3.195059324296307 -0.171871280301828 48.000000000000000
-0.750548210084673 -3.192458871676518 -0.171871280301828 48.000000000000000
-0.757976375918281 -3.174278377346508 -0.171033905001940 48.000000000000000
-0.768581401283141 -3.169672195492319 -0.170929233089455 47.000000000000000
-0.779640939557221 -3.166970035008507 -0.170929233089455 46.000000000000000
-0.791659368817710 -3.168104643356158 -0.171138576914426 47.000000000000000
-0.800258513997047 -3.155642051688241 -0.170615217351997 45.000000000000000
-0.810771173969634 -3.150895151755104 -0.170510545439511 46.000000000000000
-0.818233692937938 -3.134518321543084 -0.169777842052110 42.000000000000000
-0.829134496714632 -3.133718544765443 -0.169882513964596 46.000000000000000
-0.839550562343778 -3.128876210017963 -0.169777842052110 42.000000000000000
-0.852564593558462 -3.133635389621433 -0.170196529702053 41.000000000000000
-0.859249376451267 -3.115237388368388 -0.169359154402166 41.000000000000000
-0.866350521727098 -3.100829337719007 -0.168731122927251 41.000000000000000
-0.880434055549517 -3.109316540760817 -0.169359154402166 42.000000000000000
-0.889639041422450 -3.102540042861436 -0.169149810577194 45.000000000000000
-0.901577942262068 -3.103251631893018 -0.169359154402166 41.000000000000000
-0.909560411765847 -3.088430939086068 -0.168731122927251 40.000000000000000
-0.916909939840500 -3.073753651948357 -0.168103091452336 40.000000000000000
-0.929944176561030 -3.078181969677626 -0.168521779102279 41.000000000000000
-0.941851922043407 -3.078736878185411 -0.168731122927251 40.000000000000000
-0.953183919774074 -3.077338279985638 -0.168835794839737 38.000000000000000
-0.959736865942343 -3.060651972831171 -0.168103091452336 41.000000000000000
-0.967393471698549 -3.047764903068269 -0.167579731889906 37.000000000000000
-0.979858916712884 -3.050074129073897 -0.167893747627364 40.000000000000000
-0.990585126409754 -3.048707535721963 -0.167998419539850 35.000000000000000
-1.003092507946513 -3.050923195466021 -0.168312435277307 36.000000000000000
-1.007431777115436 -3.028451649714428 -0.167265716152448 33.000000000000000
-1.017996908533309 -3.024916606192084 -0.167265716152448 33.000000000000000
-1.030480580227886 -3.027016816476728 -0.167579731889906 38.000000000000000
-1.038439586924959 -3.015847544156654 -0.167161044239963 37.000000000000000
-1.051717301510513 -3.021818766641190 -0.167684403802392 41.000000000000000
-1.056954345823189 -3.003057372066900 -0.166847028502505 41.000000000000000
-1.063412601218778 -2.988059719047840 -0.166218997027590 42.000000000000000
-1.075188836220066 -2.988088113464662 -0.166428340852561 41.000000000000000
-1.087299350781783 -2.992204236155914 -0.166847028502505 40.000000000000000
-1.097737468533629 -2.988390623606168 -0.166847028502505 40.000000000000000
-1.100514918155231 -2.963944647027471 -0.165695637465160 38.000000000000000
-1.110854311018534 -2.960085075705857 -0.165695637465160 38.000000000000000
-1.124013220066995 -2.963659277330337 -0.166114325115104 38.000000000000000
-1.134351473644463 -2.959717683366470 -0.166114325115104 38.000000000000000
-1.146118471235633 -2.959464966348277 -0.166323668940075 38.000000000000000
-1.173180882449092 -2.998224879026202 -0.168731122927251 8.000000000000000
-1.208070982510411 -3.057473576036187 -0.172289967951771 8.000000000000000
-1.251314807362985 -3.134855534725130 -0.176895532101150 7.000000000000000
-1.294739212945265 -3.207815404752017 -0.181291752425557 7.000000000000000
-1.339104707870618 -3.284652914548048 -0.185897316574936 7.000000000000000
-1.378289787843416 -3.350619167012131 -0.189874849249400 7.000000000000000
-1.432120976313666 -3.447231020151603 -0.195631804436124 7.000000000000000
-1.491279022493663 -3.554557088187627 -0.202016791097763 7.000000000000000
-1.566006264379394 -3.696452380171996 -0.210390544096634 11.000000000000000
-1.622226830165609 -3.794079481237039 -0.216252171195844 30.000000000000000
-1.633085933907648 -3.782892682259202 -0.215938155458386 50.000000000000000
-1.641492724669270 -3.766183636702821 -0.215310123983471 38.000000000000000
-1.659455495249516 -3.771399497839418 -0.215938155458386 10.000000000000000
-1.253444062345354 -2.821906336417148 -0.161822776703182 1.000000000000000
-1.239589877177774 -2.764662643531523 -0.158787291241092 10.000000000000000
-1.283819336346532 -2.836741626087209 -0.163183511565499 8.000000000000000
-1.343503722843117 -2.941245273396539 -0.169463826314652 10.000000000000000
-1.372994354764984 -2.978254986530014 -0.171871280301828 11.000000000000000
-1.400232003943523 -3.009661544398571 -0.173964718551545 11.000000000000000
-1.418689688506989 -3.023082295341359 -0.175011437676404 11.000000000000000
-1.437781619535058 -3.036162633975803 -0.176058156801263 11.000000000000000
-1.521564588198566 -3.184303495629013 -0.184955269362564 26.000000000000000
-1.608133171644367 -3.335492729546328 -0.194061725748836 40.000000000000000
-1.793624840137930 -3.687271023864492 -0.214891436333527 45.000000000000000
-1.807364815026804 -3.682780620515183 -0.214996108246013 45.000000000000000
-1.814892040801030 -3.665709918678581 -0.214368076771098 45.000000000000000
-1.820537337266152 -3.645058085017176 -0.213530701471211 42.000000000000000
-1.834148524991303 -3.640464684008270 -0.213635373383697 35.000000000000000
-1.840510835844172 -3.621576495981914 -0.212902669996296 31.000000000000000
-1.851879252693652 -3.615776498423438 -0.212902669996296 31.000000000000000
-1.860822739969823 -3.602192289100824 -0.212483982346352 31.000000000000000
-1.873385400812757 -3.595674859781939 -0.212483982346352 31.000000000000000
-1.882209126208257 -3.582041473238923 -0.212065294696408 31.000000000000000
-1.897506896727266 -3.580743862016954 -0.212379310433866 32.000000000000000
-1.909994465095411 -3.574098511765522 -0.212379310433866 32.000000000000000
-1.919616288490826 -3.562134980000903 -0.212065294696408 33.000000000000000
-1.933946009626076 -3.558922352298796 -0.212274638521380 41.000000000000000
-1.946357184710892 -3.552149938750462 -0.212274638521380 42.000000000000000
-1.964539746544828 -3.555823397942316 -0.212902669996296 42.000000000000000
-1.973052130423611 -3.541964969882831 -0.212483982346352 41.000000000000000
-1.985403874949629 -3.535056153808767 -0.212483982346352 40.000000000000000
-1.997115627174286 -3.528452880363077 -0.212483982346352 45.000000000000000
-2.020308542181725 -3.540541953095142 -0.213635373383697 51.000000000000000
-2.032655031549947 -3.533468190030001 -0.213635373383697 52.000000000000000
-2.050988444261678 -3.536717912817398 -0.214263404858612 52.000000000000000
-2.058281531695823 -3.520915836727240 -0.213740045296183 53.000000000000000
-2.069545295852489 -3.511988923054007 -0.213635373383697 52.000000000000000
-2.081791816578836 -3.504743465599814 -0.213635373383697 52.000000000000000
-2.099142841420320 -3.506023298327714 -0.214158732946126 53.000000000000000
-2.113432256599986 -3.502094576738919 -0.214368076771098 56.000000000000000
-2.118378587567247 -3.482751223813697 -0.213635373383697 52.000000000000000
-2.124698334267522 -3.467192561414185 -0.213112013821267 56.000000000000000
-2.143085168624774 -3.469950598071579 -0.213740045296183 53.000000000000000
