# This PCD file was generated using the MATLABÂ® pcwrite function
# from Computer Vision ToolboxÂ®.
# .PCD v.7 - Point Cloud Data file format
VERSION .7
FIELDS x y z intensity
SIZE 8 8 8 8
TYPE F F F F
COUNT 1 1 1 1
WIDTH 735
HEIGHT 1
VIEWPOINT 0 0 0 1 0 0 0
POINTS 735
DATA ascii
nan nan nan nan
nan nan nan nan
nan nan nan nan
nan nan nan nan
nan nan nan nan
nan nan nan nan
nan nan nan nan
nan nan nan nan
nan nan nan nan
nan nan nan nan
nan nan nan nan
nan nan nan nan
nan nan nan nan
nan nan nan nan
nan nan nan nan
nan nan nan nan
nan nan nan nan
nan nan nan nan
nan nan nan nan
nan nan nan nan
nan nan nan nan
nan nan nan nan
nan nan nan nan
nan nan nan nan
nan nan nan nan
nan nan nan nan
nan nan nan nan
nan nan nan nan
nan nan nan nan
nan nan nan nan
nan nan nan nan
nan nan nan nan
nan nan nan nan
nan nan nan nan
nan nan nan nan
nan nan nan nan
nan nan nan nan
nan nan nan nan
nan nan nan nan
nan nan nan nan
nan nan nan nan
nan nan nan nan
nan nan nan nan
nan nan nan nan
nan nan nan nan
nan nan nan nan
nan nan nan nan
nan nan nan nan
nan nan nan nan
nan nan nan nan
nan nan nan nan
nan nan nan nan
nan nan nan nan
nan nan nan nan
nan nan nan nan
nan nan nan nan
nan nan nan nan
nan nan nan nan
nan nan nan nan
nan nan nan nan
nan nan nan nan
nan nan nan nan
nan nan nan nan
nan nan nan nan
nan nan nan nan
nan nan nan nan
nan nan nan nan
nan nan nan nan
nan nan nan nan
nan nan nan nan
nan nan nan nan
nan nan nan nan
nan nan nan nan
nan nan nan nan
nan nan nan nan
nan nan nan nan
nan nan nan nan
nan nan nan nan
nan nan nan nan
nan nan nan nan
nan nan nan nan
nan nan nan nan
nan nan nan nan
nan nan nan nan
nan nan nan nan
nan nan nan nan
nan nan nan nan
nan nan nan nan
nan nan nan nan
nan nan nan nan
nan nan nan nan
nan nan nan nan
nan nan nan nan
nan nan nan nan
nan nan nan nan
nan nan nan nan
nan nan nan nan
nan nan nan nan
nan nan nan nan
3.474774127212670 10.325082396680266 2.117598230688894 0.000000000000000
3.479159744506767 10.219964602828208 2.098517331151240 0.000000000000000
3.504586112564039 10.178057109860108 2.092411443299190 0.000000000000000
3.540092810880899 10.165761813179572 2.092411443299190 0.000000000000000
3.573600023905994 10.147787291892948 2.091266589326931 0.000000000000000
3.607024910105981 10.129702780895052 2.090121735354672 1.000000000000000
3.634614025727816 10.101060019829227 2.086687173437894 1.000000000000000
3.675220366202234 10.103071092580322 2.089740117363919 1.000000000000000
3.711819448128959 10.093865865670256 2.090503353345425 3.000000000000000
3.749083044888596 10.086368429685363 2.091648207317684 3.000000000000000
3.780439694829312 10.068366672077968 2.090503353345425 5.000000000000000
3.810686149189787 10.042260328118044 2.087832027410153 5.000000000000000
3.841156101395132 10.022235525770952 2.086305555447141 5.000000000000000
3.878952840498592 10.016089370932566 2.087832027410153 6.000000000000000
3.918581688847950 10.019626819407522 2.091266589326931 7.000000000000000
3.945596916460472 9.985802563272628 2.087068791428647 8.000000000000000
3.979416835350705 9.974487076473766 2.087450409419400 11.000000000000000
4.011274611846778 9.953251796046352 2.085923937456388 13.000000000000000
4.050944382654373 9.941412487612148 2.086687173437894 14.000000000000000
4.090852021571068 9.939920059975586 2.089358499373166 16.000000000000000
4.118742211610572 9.909263742652314 2.085923937456388 18.000000000000000
4.154826592184422 9.898446778615671 2.086687173437894 20.000000000000000
4.182840816539925 9.878113764910406 2.085160701474882 23.000000000000000
4.218840051355047 9.867063086259710 2.085923937456388 25.000000000000000
4.259481863897418 9.866696196811716 2.088976881382413 28.000000000000000
4.287621776980529 9.837369812338499 2.085923937456388 31.000000000000000
4.320220096054656 9.823097456952770 2.085923937456388 31.000000000000000
4.354482784835403 9.807957228889132 2.085923937456388 31.000000000000000
4.392007937261983 9.795514224339501 2.086687173437894 31.000000000000000
4.431030716398239 9.790855242489551 2.088976881382413 34.000000000000000
4.461027813119644 9.770749831814003 2.087832027410153 36.000000000000000
4.495106916739818 9.755118412013164 2.087832027410153 23.000000000000000
4.525862095785374 9.727897281717725 2.085542319465635 37.000000000000000
4.568969208917501 9.731588288138971 2.089740117363919 39.000000000000000
4.602895699135995 9.719932248350649 2.090503353345425 38.000000000000000
4.631717913915320 9.693177442772694 2.088213645400907 38.000000000000000
4.662114727826365 9.669876881573739 2.086687173437894 40.000000000000000
4.697558065554500 9.657075075247093 2.087450409419400 40.000000000000000
4.731285522790589 9.644969521620773 2.088213645400907 39.000000000000000
4.770148621976372 9.638952943857982 2.090503353345425 39.000000000000000
4.796672848452396 9.603841014153105 2.086687173437894 40.000000000000000
4.830167286707574 9.587038991400304 2.086687173437894 39.000000000000000
4.863710817819372 9.574469586814802 2.087450409419400 39.000000000000000
4.900683384269127 9.564422719443046 2.088976881382413 39.000000000000000
4.937509155954112 9.549884479759383 2.089740117363919 38.000000000000000
4.964460174188767 9.520405613141607 2.087068791428647 40.000000000000000
4.996003680613579 9.503890523524571 2.087068791428647 40.000000000000000
5.027308864957833 9.482924164287448 2.086305555447141 39.000000000000000
5.073338538654471 9.489556778323633 2.091648207317684 19.000000000000000
5.094320775676201 9.449324233759977 2.086687173437894 37.000000000000000
5.126792770397556 9.438448882878996 2.087832027410153 39.000000000000000
5.152163059808659 9.406720362496706 2.084779083484129 40.000000000000000
5.190661890104437 9.398990211850526 2.087068791428647 40.000000000000000
5.225349064190795 9.384244699637835 2.087832027410153 39.000000000000000
5.263266725802202 9.367534851752691 2.088595263391659 38.000000000000000
5.290127575402129 9.338856212903185 2.086305555447141 39.000000000000000
5.315548267427752 9.315370029672087 2.084779083484129 39.000000000000000
5.349990503388822 9.300162087155648 2.085542319465635 39.000000000000000
5.387982110500595 9.287283598381720 2.087068791428647 40.000000000000000
5.422350170085339 9.271808888145609 2.087832027410153 40.000000000000000
5.447086449637805 9.243628207792117 2.085542319465635 39.000000000000000
5.482327408693533 9.229621813709239 2.086687173437894 39.000000000000000
5.514511400924857 9.210428689766809 2.086687173437894 41.000000000000000
5.546628200575035 9.191123339657429 2.086687173437894 39.000000000000000
5.585236151994668 9.186099682037618 2.089740117363919 38.000000000000000
5.612138608735823 9.158177857066173 2.087832027410153 25.000000000000000
5.626534637432525 9.110135946093978 2.081344521567351 36.000000000000000
5.676974927220187 9.120441625649210 2.088213645400907 39.000000000000000
5.710364885710803 9.099573212145859 2.088213645400907 39.000000000000000
5.744192252721735 9.082903442887710 2.088976881382413 38.000000000000000
5.767951527621904 9.053870322420899 2.086687173437894 40.000000000000000
5.795277775868158 9.027072856111964 2.085160701474882 41.000000000000000
5.829952002525817 9.011733727621763 2.086305555447141 41.000000000000000
5.864589716732290 8.996262459633593 2.087450409419400 38.000000000000000
5.898112546821180 8.979018217833843 2.088213645400907 38.000000000000000
5.925084865363895 8.951826739746782 2.086687173437894 40.000000000000000
5.952559583143451 8.928862174783164 2.085923937456388 40.000000000000000
5.988069707893533 8.914548331891114 2.087450409419400 39.000000000000000
6.021351593675692 8.896843527706929 2.088213645400907 40.000000000000000
6.054582812782068 8.879014953935702 2.088976881382413 38.000000000000000
6.083316038081939 8.854590095084951 2.088213645400907 39.000000000000000
6.107483111183872 8.823615776638862 2.085923937456388 39.000000000000000
6.148352950767740 8.816736190557295 2.089358499373166 36.000000000000000
6.180220246772563 8.796827152062402 2.089740117363919 38.000000000000000
6.210889251903712 8.775200564230243 2.089740117363919 40.000000000000000
6.239203002034236 8.750270023745371 2.088976881382413 38.000000000000000
6.261315138423528 8.719963611022591 2.086687173437894 38.000000000000000
6.296317917245473 8.704417295611183 2.088213645400907 38.000000000000000
6.327819833005202 8.683972707624314 2.088595263391659 36.000000000000000
6.359255723463985 8.663414236468228 2.088976881382413 39.000000000000000
6.387123464916488 8.638006344931373 2.088213645400907 39.000000000000000
6.412545858858474 8.609360501700856 2.086687173437894 40.000000000000000
6.446414677895137 8.588939899011573 2.087450409419400 40.000000000000000
6.478724354152456 8.569517519328221 2.088213645400907 40.000000000000000
6.510673768563588 8.552672572970110 2.089358499373166 36.000000000000000
6.533320843299503 8.520546145544476 2.087068791428647 41.000000000000000
6.561823255705084 8.496134897769556 2.086687173437894 40.000000000000000
6.596262153196477 8.479376473389376 2.088213645400907 40.000000000000000
6.633085668069552 8.465571820597935 2.090503353345425 38.000000000000000
6.662595617298006 8.442366455562857 2.090503353345425 39.000000000000000
6.684694675827076 8.409836910554843 2.088213645400907 38.000000000000000
6.709101857622199 8.380321288844486 2.086687173437894 40.000000000000000
6.740778399456930 8.359907736191211 2.087450409419400 40.000000000000000
6.774869436614980 8.342423131552970 2.088976881382413 41.000000000000000
6.798976823415540 8.312644882519228 2.087450409419400 40.000000000000000
6.821710674998721 8.281284725229920 2.085542319465635 43.000000000000000
6.850576193048830 8.257422058787506 2.085542319465635 43.000000000000000
6.879358238989935 8.233458778263191 2.085542319465635 45.000000000000000
6.906792407874477 8.207892999031619 2.085160701474882 48.000000000000000
6.944286253493554 8.194218074646345 2.087832027410153 57.000000000000000
6.966324078295648 8.165170786056390 2.086305555447141 62.000000000000000
6.989665579891033 8.134847709352256 2.084779083484129 102.000000000000000
7.021740821337162 8.117563733490348 2.086305555447141 108.000000000000000
7.057770997819429 8.101885852570183 2.088595263391659 121.000000000000000
7.093893381796348 8.083341414128039 2.090503353345425 126.000000000000000
7.119466047256727 8.055587715607006 2.089740117363919 128.000000000000000
7.150055171724570 8.036334679313402 2.090884971336178 135.000000000000000
7.180683863564248 8.014251744759004 2.091648207317684 46.000000000000000
7.196778269211821 7.976019202268884 2.088213645400907 38.000000000000000
7.225896207380407 7.952302171440884 2.088595263391659 36.000000000000000
7.248366330167983 7.918523737660758 2.086687173437894 39.000000000000000
7.270640399571913 7.887399890276743 2.085160701474882 38.000000000000000
7.300799617956810 7.864850301537096 2.085923937456388 38.000000000000000
7.337593416044590 7.849357214865242 2.088595263391659 36.000000000000000
7.359546163830051 7.820692491759868 2.087450409419400 39.000000000000000
7.384099797086695 7.792105160152421 2.086687173437894 40.000000000000000
7.400412777344300 7.757631898477600 2.084015847502622 41.000000000000000
7.428806969418252 7.733168187552083 2.084397465493375 40.000000000000000
7.466638460180818 7.713050158345815 2.086687173437894 40.000000000000000
7.496257402253752 7.689751344963673 2.087450409419400 40.000000000000000
7.514879073672408 7.660557279677961 2.085923937456388 40.000000000000000
7.537434452336858 7.630088731449489 2.084779083484129 41.000000000000000
7.569504000801103 7.606586258565834 2.085923937456388 39.000000000000000
7.596009825880857 7.580117416786361 2.085923937456388 39.000000000000000
7.626681733786947 7.560415102342946 2.087450409419400 40.000000000000000
7.654425133792873 7.535124238954550 2.087832027410153 37.000000000000000
7.672162426432080 7.497413724176399 2.085160701474882 41.000000000000000
7.701104363662811 7.473321678284703 2.085923937456388 39.000000000000000
7.720190701737863 7.442292572497068 2.084397465493375 41.000000000000000
7.754631222012891 7.423444433064251 2.086687173437894 41.000000000000000
7.776227891380161 7.392272520344414 2.085542319465635 41.000000000000000
7.797701479932449 7.361040336508425 2.084397465493375 41.000000000000000
7.796134660539652 7.308265310118617 2.077146723669067 26.000000000000000
7.810101760515903 7.270305735195573 2.074093779743042 60.000000000000000
7.838492308328742 7.248365260209134 2.075238633715301 103.000000000000000
7.860853923601708 7.218303915463303 2.074475397733795 110.000000000000000
nan nan nan nan
7.938706073933169 7.188286454474190 2.081726139558104 37.000000000000000
7.981475350625967 7.178989056096955 2.086687173437894 40.000000000000000
8.006486073055335 7.151084771010670 2.086687173437894 40.000000000000000
8.025524038364859 7.117882603601482 2.085160701474882 41.000000000000000
8.051794529541418 7.091122484329600 2.085542319465635 41.000000000000000
8.075020253231282 7.061680873483976 2.085160701474882 41.000000000000000
8.117409256701348 7.048897587644402 2.089740117363919 39.000000000000000
8.138991356339105 7.017955492199077 2.088976881382413 40.000000000000000
8.148525892352239 6.976733808214982 2.085160701474882 39.000000000000000
8.166846556714798 6.943161075236707 2.083634229511869 41.000000000000000
8.200034091641262 6.922209634435202 2.085923937456388 39.000000000000000
8.227156356385160 6.896066337253510 2.086687173437894 40.000000000000000
8.251177997452835 6.867306189078800 2.086687173437894 39.000000000000000
8.273585731994462 6.837211731740366 2.086305555447141 41.000000000000000
8.292848474794448 6.804553844531190 2.085160701474882 40.000000000000000
8.316889437790620 6.778256657377673 2.085542319465635 41.000000000000000
8.348130131578014 6.755358916775187 2.087450409419400 39.000000000000000
8.377781747013525 6.731095942597818 2.088976881382413 39.000000000000000
8.388948608800996 6.692016629241316 2.085923937456388 39.000000000000000
8.412256997772854 6.662692963852388 2.085923937456388 41.000000000000000
8.438549407411296 6.635715224366418 2.086687173437894 41.000000000000000
8.460507834061701 6.607695500701461 2.086687173437894 41.000000000000000
8.488175907210882 6.581731625762717 2.087832027410153 41.000000000000000
8.509130377822535 6.548182043366104 2.087068791428647 43.000000000000000
8.500734875893226 6.494601965990737 2.079436431613585 22.000000000000000
8.463913685031239 6.419804731688799 2.064934947964968 8.000000000000000
8.396876212356545 6.322905838051901 2.043182722492042 7.000000000000000
8.351763281897560 6.245644052798857 2.027154766880412 7.000000000000000
8.297849485328248 6.160280140638533 2.008837103324264 7.000000000000000
8.284018095396712 6.103042571816564 2.000059889536943 13.000000000000000
nan nan nan nan
8.219979654733075 5.967781987871863 1.974491484156486 45.000000000000000
8.178644733331861 5.894285818749517 1.959608382517115 45.000000000000000
8.127898905812206 5.816858665942211 1.942817190923979 43.000000000000000
8.084133946912068 5.742971687096575 1.927552471293856 43.000000000000000
8.000461027442846 5.643704427294458 1.903128919885658 26.000000000000000
7.986340210352536 5.592095617996165 1.895114942079843 39.000000000000000
8.038391190085180 5.582667093770225 1.902365683904152 17.000000000000000
8.838557864145566 6.092760254790956 2.086687173437894 18.000000000000000
8.847935740945481 6.058308041849995 2.084397465493375 18.000000000000000
8.872276816931683 6.029593098440508 2.085160701474882 20.000000000000000
7.736038099439110 5.218023584689178 1.813830310049435 4.000000000000000
nan nan nan nan
7.697057090430422 5.113912504207926 1.796275882474793 105.000000000000000
7.655856409567940 5.048107191470060 1.782537634807682 58.000000000000000
7.618446285541273 4.983472716607539 1.769562623122077 62.000000000000000
7.586394129897296 4.924779688027908 1.758114083399484 102.000000000000000
7.563928240635053 4.872750875875907 1.748955251621410 58.000000000000000
7.518034181871080 4.806134846941252 1.734453767972792 105.000000000000000
7.480886387079605 4.747514863976038 1.722241992268693 108.000000000000000
7.457541712151150 4.696264653612396 1.713083160490619 60.000000000000000
7.429790517216618 4.644451653584654 1.703161092731039 62.000000000000000
7.400911290403487 4.590547883554724 1.692857406980705 110.000000000000000
7.355816983955455 4.525328801966309 1.678737541322841 105.000000000000000
7.324647869944797 4.470984154972109 1.668052237581755 62.000000000000000
7.294868857137153 4.417929616468705 1.657748551831421 110.000000000000000
7.269857767857467 4.368171238637157 1.648589720053347 110.000000000000000
7.241215964527655 4.316631056784431 1.638667652293767 110.000000000000000
7.234271580806631 4.278336286465088 1.633706618413977 137.000000000000000
7.254241688944411 4.256038320036309 1.634851472386236 135.000000000000000
7.286021752597985 4.240565922845093 1.638667652293767 136.000000000000000
7.317781982658271 4.224923397558747 1.642483832201298 136.000000000000000
7.352928866852326 4.211062067436180 1.647063248090335 138.000000000000000
7.370266563877746 4.188595785675336 1.647826484071841 138.000000000000000
7.391683573833606 4.166699505692431 1.649352956034853 138.000000000000000
7.437027852672953 4.158117980616121 1.656222079868409 138.000000000000000
7.478968041160283 4.147366244622906 1.662327967720458 138.000000000000000
7.510601964739035 4.130695559658586 1.666144147627989 138.000000000000000
7.531869185320210 4.108213879507352 1.667670619591002 137.000000000000000
7.556524506599441 4.087502157261759 1.669960327535520 137.000000000000000
7.584587002086293 4.068524376392161 1.673013271461545 136.000000000000000
7.616075492813096 4.051244386456224 1.676829451369076 136.000000000000000
7.651008546555327 4.035625904570829 1.681408867258113 137.000000000000000
7.671307198241914 4.013872757599882 1.682935339221125 138.000000000000000
7.702698412119544 3.996111420449663 1.686751519128656 137.000000000000000
7.737550563281550 3.979975747277057 1.691330935017693 139.000000000000000
7.782877433428355 3.968996777064616 1.698200058851249 139.000000000000000
7.814205040797461 3.950663273853769 1.702016238758780 138.000000000000000
7.841988984347362 3.930399960771577 1.705069182684804 137.000000000000000
7.869726506107568 3.909990731402117 1.708122126610829 137.000000000000000
7.897416925632601 3.889435663525613 1.711175070536854 135.000000000000000
7.928588084078187 3.870457337823603 1.714991250444385 137.000000000000000
7.966791787191393 3.854729028619996 1.720333902314928 137.000000000000000
7.989482045118807 3.834778813452076 1.722623610259447 137.000000000000000
8.020548132787521 3.815300420748913 1.726439790166977 137.000000000000000
8.059341583707067 3.797593818535710 1.731782442037521 138.000000000000000
8.101010608367188 3.782728549070889 1.737888329889570 137.000000000000000
8.134889519282696 3.765740652778119 1.742467745778607 137.000000000000000
8.165829754370900 3.745506757906215 1.746283925686138 137.000000000000000
8.190227747253006 3.720424128496457 1.748573633630657 135.000000000000000
8.224648179399381 3.701480880683062 1.753153049519694 136.000000000000000
8.261335662548451 3.686825455442285 1.758495701390237 137.000000000000000
8.299293245164765 3.669079161632902 1.763838353260780 138.000000000000000
8.324112131044160 3.641906767234255 1.766128061205299 138.000000000000000
8.361993326614074 3.623757044612163 1.771470713075842 137.000000000000000
8.403457115395769 3.606935810010746 1.777576600927891 137.000000000000000
6.294832914616555 2.675888739962280 1.329557079783764 23.000000000000000
6.283307329682812 2.647713688198604 1.325359281885480 25.000000000000000
6.261710059332904 2.612911856761944 1.318871776042678 13.000000000000000
6.223616573020289 2.571545724503610 1.308949708283097 6.000000000000000
nan nan nan nan
6.243237193204258 2.528771406716904 1.309331326273850 24.000000000000000
6.226515180022346 2.496733516012313 1.303988674403307 24.000000000000000
6.206426219581455 2.462311485833141 1.297882786551258 22.000000000000000
6.185745097428196 2.429150064040938 1.291776898699208 21.000000000000000
6.175887801043171 2.400430597991906 1.287960718791678 22.000000000000000
6.158576142807815 2.368990246422707 1.282618066921134 22.000000000000000
6.152129434362233 2.341890799945282 1.279565122995109 23.000000000000000
6.112498430491581 2.302408619148683 1.269643055235529 23.000000000000000
6.086592188972079 2.270841589216581 1.262773931401973 21.000000000000000
6.079747506886356 2.244142884537828 1.259720987475949 20.000000000000000
6.069489175563108 2.215113600258189 1.255904807568418 20.000000000000000
6.062411529757068 2.188580510658986 1.252851863642393 20.000000000000000
6.036357251858080 2.156575558620388 1.245982739808838 20.000000000000000
6.014230696360434 2.125026711111563 1.239876851956788 21.000000000000000
5.996030095697853 2.093907447883743 1.234534200086245 22.000000000000000
5.984745317006738 2.066556712353500 1.230718020178714 21.000000000000000
5.969271163171861 2.039083594067546 1.226138604289677 20.000000000000000
5.950311774613729 2.009440476214782 1.220795952419134 19.000000000000000
5.931218489456704 1.979954672337847 1.215453300548590 20.000000000000000
5.919449749803168 1.953087337381473 1.211637120641060 20.000000000000000
5.911298997388818 1.927543631481271 1.208584176715035 21.000000000000000
5.899304939840471 1.900876455912445 1.204767996807504 21.000000000000000
5.864748168846298 1.867169514027400 1.196372401010936 21.000000000000000
5.845010867426144 1.838439581909848 1.191029749140393 21.000000000000000
5.822954058810308 1.810304104225452 1.185305479279096 17.000000000000000
5.784195320431376 1.776136131796175 1.176146647501022 4.000000000000000
5.771572283043961 1.750237314295052 1.172330467593491 5.000000000000000
5.741912446693814 1.719379739064140 1.165079725769183 6.000000000000000
5.753527316505392 1.700996075196286 1.166224579741442 12.000000000000000
5.789583931381185 1.689702688713259 1.172330467593491 7.000000000000000
7.202804676979150 2.074897786138718 1.457017488695296 16.000000000000000
7.253437296186407 2.062090512190465 1.465794702482617 18.000000000000000
7.276890652899936 2.044071377024288 1.469229264399395 18.000000000000000
7.302900892601135 2.023901102290363 1.473045444306926 19.000000000000000
7.353477658968925 2.010304436895916 1.481822658094247 19.000000000000000
7.381301264610125 1.990245925868642 1.486020455992531 18.000000000000000
7.414766171859977 1.971531054065832 1.491363107863074 20.000000000000000
7.434896483161388 1.949121698432215 1.494034433798346 21.000000000000000
7.464464561808750 1.929051926472294 1.498613849687383 22.000000000000000
7.505397895071836 1.911706947492168 1.505482973520939 23.000000000000000
7.550439685075732 1.893737719447173 1.513115333336000 23.000000000000000
7.587498909621522 1.874905644981659 1.519221221188050 23.000000000000000
nan nan nan nan
5.513450343227351 1.322644617035877 1.102112757294923 14.000000000000000
5.504885758841036 1.299271072994008 1.099441431359651 62.000000000000000
5.501738252483676 1.278270293439910 1.097914959396639 61.000000000000000
5.490636653993278 1.256515141534364 1.094862015470614 62.000000000000000
5.475836281961424 1.233028790359473 1.091045835563083 105.000000000000000
5.451565794117996 1.206586711109173 1.085321565701787 110.000000000000000
5.440397676007517 1.184209338424417 1.082268621775762 113.000000000000000
5.432573302724770 1.164642801979201 1.079978913831244 110.000000000000000
5.417394947293616 1.141624174214717 1.076162733923713 114.000000000000000
5.398277393199690 1.117929505192062 1.071583318034676 111.000000000000000
5.386756075611283 1.095947910017700 1.068530374108651 110.000000000000000
5.378809978595513 1.075768588488809 1.066240666164132 111.000000000000000
5.369047114418175 1.054338343077317 1.063569340228861 108.000000000000000
5.369019725311999 1.033910234974602 1.062806104247355 105.000000000000000
5.341730133810926 1.009330387042032 1.056700216395305 105.000000000000000
5.325917015796454 0.987100373092322 1.052884036487774 108.000000000000000
5.319672108815487 0.966748268422312 1.050975946534009 110.000000000000000
5.311417299760048 0.946107520741017 1.048686238589490 116.000000000000000
5.303083351225811 0.925536207074464 1.046396530644972 121.000000000000000
5.279189154336200 0.902388327843267 1.041053878774429 116.000000000000000
5.262943619660709 0.880714716762434 1.037237698866898 119.000000000000000
5.250486233721773 0.859800094292874 1.034184754940873 121.000000000000000
5.241824241570606 0.839604211796931 1.031895046996354 123.000000000000000
5.240700521183136 0.821608931051778 1.031131811014848 118.000000000000000
5.224130412615416 0.800337445125030 1.027315631107317 118.000000000000000
5.211359172174018 0.779772740127465 1.024262687181293 118.000000000000000
5.202393489611806 0.759874469208310 1.021972979236774 119.000000000000000
5.193352531984242 0.740048312463166 1.019683271292255 121.000000000000000
5.192014993185007 0.721375264466721 1.018920035310749 121.000000000000000
5.173100863546479 0.700350081370248 1.014722237412465 124.000000000000000
5.148264233464488 0.678695981070708 1.009379585541922 124.000000000000000
5.135138469925437 0.657826409522997 1.006326641615897 125.000000000000000
5.137403427591956 0.639897423451980 1.006326641615897 124.000000000000000
5.120007216809587 0.620495667980871 1.002510461708366 125.000000000000000
5.102643891979503 0.600325780841190 0.998694281800836 124.000000000000000
nan nan nan nan
3.615871110009460 0.399834679823272 0.707138136865475 4.000000000000000
3.619129193670629 0.388051125509476 0.707519754856228 4.000000000000000
3.624367264080019 0.375820622046045 0.708282990837734 5.000000000000000
3.619859831951570 0.361948134977897 0.707138136865475 6.000000000000000
3.617192847172957 0.348933239692007 0.706374900883969 6.000000000000000
3.622239657821381 0.337300336045597 0.707138136865475 9.000000000000000
nan nan nan nan
3.636242291427732 0.313014585987051 0.709427844809994 133.000000000000000
nan nan nan nan
3.624638876121288 0.286538375681672 0.706756518874722 8.000000000000000
3.627574675732883 0.274032164849121 0.707138136865475 6.000000000000000
3.638300030350352 0.262073152737986 0.709046226819241 5.000000000000000
3.637234009316349 0.249237303922359 0.708664608828487 4.000000000000000
3.632204497034659 0.236157337826686 0.707519754856228 4.000000000000000
3.631047160801893 0.223356601476071 0.707138136865475 4.000000000000000
3.631841414628894 0.210046648097079 0.707138136865475 10.000000000000000
nan nan nan nan
nan nan nan nan
3.655383233612710 0.173662325611676 0.711335934763759 3.000000000000000
3.642237668008057 0.160297354741722 0.708664608828487 4.000000000000000
3.656506536400840 0.148138911740645 0.711335934763759 3.000000000000000
3.664849003419254 0.135664922557801 0.712862406726771 4.000000000000000
3.671186691338868 0.123068716599488 0.714007260699031 4.000000000000000
3.651931714700784 0.110938631354425 0.710191080791500 7.000000000000000
nan nan nan nan
3.658520244129576 0.084940044783589 0.711335934763759 135.000000000000000
3.670571686617933 0.072401211785294 0.713625642708278 123.000000000000000
nan nan nan nan
3.669024594059595 0.046749218074457 0.713244024717524 5.000000000000000
3.663275915212719 0.033887166395564 0.712099170745265 4.000000000000000
3.667298329174826 0.021122355627342 0.712862406726771 4.000000000000000
3.673237954897652 0.008975431375722 0.714007260699031 6.000000000000000
nan nan nan nan
3.683024298175327 -0.017355971589831 0.715915350652796 135.000000000000000
3.686867652911312 -0.030244228806406 0.716678586634302 137.000000000000000
3.686747087784736 -0.042470156235013 0.716678586634302 137.000000000000000
3.690502444779487 -0.055397980453596 0.717441822615808 24.000000000000000
4.734543811535753 -0.088427994742134 0.920462593696452 135.000000000000000
4.716541346904841 -0.104562478295808 0.917028031779674 131.000000000000000
4.688671105480160 -0.120320541452409 0.911685379909131 133.000000000000000
4.686260122935984 -0.136629109978184 0.911303761918378 134.000000000000000
4.685807764886123 -0.151350731898898 0.911303761918378 134.000000000000000
4.681326908962617 -0.167565873760489 0.910540525936872 116.000000000000000
nan nan nan nan
4.650621110820605 -0.198984487664500 0.904816256075575 16.000000000000000
4.642053572689611 -0.214853890347601 0.903289784112563 35.000000000000000
4.676570180964582 -0.232813454935991 0.910158907946119 132.000000000000000
4.663922734647540 -0.249323566728577 0.907869200001600 125.000000000000000
4.653223632016589 -0.265043953945841 0.905961110047835 126.000000000000000
4.636641558807387 -0.279527992678295 0.902908166121810 129.000000000000000
4.631719031996768 -0.295461221924412 0.902144930140304 129.000000000000000
4.630659461846952 -0.311627138467495 0.902144930140304 129.000000000000000
4.627585116851886 -0.327650599193692 0.901763312149551 130.000000000000000
4.610810095121443 -0.341833206072385 0.898710368223526 130.000000000000000
4.582185708350713 -0.355798057280729 0.893367716352983 133.000000000000000
4.584764450303244 -0.372908534781674 0.894130952334489 131.000000000000000
4.579522374943644 -0.388578101247087 0.893367716352983 131.000000000000000
4.578138084227136 -0.404561250155466 0.893367716352983 130.000000000000000
4.557147826616475 -0.418743060088492 0.889551536445452 130.000000000000000
4.544007696369087 -0.432736066238628 0.887261828500933 131.000000000000000
4.542469481957164 -0.448594976758545 0.887261828500933 131.000000000000000
4.529157529519762 -0.463249844719166 0.884972120556415 133.000000000000000
4.527512892616100 -0.479056732582773 0.884972120556415 131.000000000000000
4.514103353072195 -0.493577426801516 0.882682412611896 131.000000000000000
4.504549481062060 -0.508450765485420 0.881155940648884 131.000000000000000
4.495038130012767 -0.522478906321335 0.879629468685872 131.000000000000000
4.493186952968459 -0.538166334411054 0.879629468685872 131.000000000000000
4.489332532836159 -0.553606924330695 0.879247850695119 134.000000000000000
4.469843933751980 -0.567050519001520 0.875813288778341 131.000000000000000
4.460050245929290 -0.581634219874486 0.874286816815328 130.000000000000000
4.452155175412496 -0.596417141579858 0.873141962843069 129.000000000000000
4.452204551788446 -0.610667817034355 0.873523580833822 131.000000000000000
4.446157598169509 -0.625658047732789 0.872760344852316 131.000000000000000
4.428401487659595 -0.638931374146184 0.869707400926291 130.000000000000000
4.420317792189580 -0.653524076129532 0.868562546954032 129.000000000000000
4.410128505541032 -0.668543947155756 0.867036074991020 129.000000000000000
4.407767983653709 -0.683934095466432 0.867036074991020 129.000000000000000
4.405475741057973 -0.698547020331395 0.867036074991020 129.000000000000000
4.389444903857638 -0.711721164915036 0.864364749055748 131.000000000000000
4.379059712098353 -0.726519198274024 0.862838277092736 133.000000000000000
4.368754421619892 -0.740488202418393 0.861311805129723 133.000000000000000
4.370011998674357 -0.756403169569785 0.862075041111229 133.000000000000000
4.367345035271462 -0.771652749870546 0.862075041111229 133.000000000000000
4.349441458081063 -0.782588039311374 0.859022097185205 133.000000000000000
4.333166210851724 -0.795284820496763 0.856350771249933 134.000000000000000
4.326362863119125 -0.810438366636840 0.855587535268427 135.000000000000000
4.323507547604588 -0.825535253819890 0.855587535268427 135.000000000000000
4.322526669959028 -0.840997025061138 0.855969153259180 135.000000000000000
4.298380931200930 -0.851881992106237 0.851771355360896 136.000000000000000
4.287683305283126 -0.865327401537759 0.850244883397884 135.000000000000000
4.286559713387663 -0.880684040219420 0.850626501388637 135.000000000000000
4.277850393880713 -0.893689508877319 0.849481647416377 135.000000000000000
4.282386183397695 -0.910249282886222 0.851008119379390 135.000000000000000
4.252157378882144 -0.920125829591361 0.845665467508847 135.000000000000000
4.258506547288307 -0.937072596650227 0.847573557462612 135.000000000000000
4.234299986571733 -0.946478183529824 0.843375759564328 134.000000000000000
4.244371627953889 -0.964297574889459 0.846047085499600 135.000000000000000
4.235240934240996 -0.977782413469158 0.844902231527340 134.000000000000000
4.224156502008197 -0.990766962873295 0.843375759564328 134.000000000000000
4.180566408591122 -0.995951402899141 0.835361781758513 43.000000000000000
4.180880833333583 -1.011461522833733 0.836125017740019 43.000000000000000
4.181317048793233 -1.026256200105015 0.836888253721526 45.000000000000000
4.196759474000865 -1.045591685439600 0.840704433629056 132.000000000000000
4.156736911559234 -1.051816139683189 0.833453691804748 59.000000000000000
4.154941638919739 -1.066807692749350 0.833835309795501 53.000000000000000
4.162591627339948 -1.084273903913867 0.836125017740019 108.000000000000000
7.294476081144978 -1.927283714125054 1.466557938464123 113.000000000000000
7.278222374593409 -1.950193807606433 1.464649848510358 118.000000000000000
7.248635712234758 -1.969410734991535 1.460070432621321 116.000000000000000
7.234145966646325 -1.992615780345494 1.458543960658309 119.000000000000000
7.227146366659842 -2.017855522504676 1.458543960658309 116.000000000000000
7.220415179307810 -2.041810508653666 1.458543960658309 121.000000000000000
7.209469350043248 -2.065920387998477 1.457780724676802 116.000000000000000
7.182995940966690 -2.086853232647166 1.453964544769272 110.000000000000000
7.170017570458206 -2.110250929475708 1.452819690797012 113.000000000000000
7.160726306884853 -2.134705226149516 1.452438072806259 118.000000000000000
7.153231169470978 -2.159687820211917 1.452438072806259 107.000000000000000
7.149403811169179 -2.185792099211896 1.453201308787765 116.000000000000000
7.122975872109695 -2.204929357944143 1.449385128880234 110.000000000000000
7.102121921275165 -2.225670098579593 1.446713802944963 102.000000000000000
7.094309614238578 -2.250447570971297 1.446713802944963 105.000000000000000
7.082672320901867 -2.273997307084731 1.445950566963456 105.000000000000000
7.078425770637702 -2.299919951202777 1.446713802944963 105.000000000000000
7.055434133384360 -2.319708713095588 1.443660859018938 105.000000000000000
7.036116544921888 -2.340604445677841 1.441371151074420 105.000000000000000
7.024182023331772 -2.363898419576107 1.440607915092913 108.000000000000000
7.021463224128926 -2.390301057418906 1.441752769065173 110.000000000000000
7.011220445730737 -2.414156802326165 1.441371151074420 105.000000000000000
6.991626444920693 -2.434741927746100 1.439081443129901 25.000000000000000
6.968698909080441 -2.452699260825779 1.436028499203876 105.000000000000000
6.971192615175267 -2.480959140556581 1.438318207148395 25.000000000000000
6.954663868090224 -2.503833059847105 1.436791735185383 105.000000000000000
nan nan nan nan
nan nan nan nan
3.921302025378176 -1.458319150989166 0.813227938294834 121.000000000000000
3.932727158397003 -1.478214956748428 0.816662500211612 136.000000000000000
3.905519658648914 -1.483567747042246 0.812083084322575 137.000000000000000
3.903982958729190 -1.498598651247288 0.812846320304081 138.000000000000000
3.876763423537035 -1.503697432714683 0.808266904415044 137.000000000000000
3.871490921396019 -1.517220701406201 0.808266904415044 137.000000000000000
3.866171246359894 -1.530725483242276 0.808266904415044 137.000000000000000
3.868095878664120 -1.547127971770881 0.809793376378056 138.000000000000000
3.862671828456132 -1.560620720490915 0.809793376378056 138.000000000000000
3.848112115466860 -1.570385465666410 0.807885286424291 139.000000000000000
3.833531408013392 -1.580067625940226 0.805977196470525 137.000000000000000
3.831895893174214 -1.594279692689367 0.806740432452031 137.000000000000000
3.831737427128567 -1.609927219945452 0.807885286424291 139.000000000000000
3.827618197025779 -1.624727530703055 0.808266904415044 139.000000000000000
3.811096541600110 -1.633438064137481 0.805977196470525 137.000000000000000
3.802342030358138 -1.643844749970489 0.805213960489019 137.000000000000000
3.796580776186398 -1.657107385695167 0.805213960489019 137.000000000000000
3.794074546722570 -1.672595316471216 0.805977196470525 137.000000000000000
3.784625661811333 -1.684232489234402 0.805213960489019 53.000000000000000
3.776636496748281 -1.697287739865467 0.804832342498266 141.000000000000000
3.747446100573944 -1.699916942954009 0.799871308618476 139.000000000000000
3.746844637652080 -1.715439409762487 0.801016162590735 142.000000000000000
3.744398205786720 -1.730154869520738 0.801779398572241 141.000000000000000
3.742199132521440 -1.744221021625215 0.802542634553748 141.000000000000000
3.723652005480782 -1.751423886935404 0.799871308618476 140.000000000000000
3.717515709448908 -1.764411187804462 0.799871308618476 140.000000000000000
3.711334116661290 -1.777376989880012 0.799871308618476 139.000000000000000
3.708642710170021 -1.792029456871717 0.800634544599982 139.000000000000000
3.705894188726629 -1.806684770302022 0.801397780581488 138.000000000000000
3.688994918388146 -1.814410863159958 0.799108072636970 137.000000000000000
3.682638967921407 -1.827276804480694 0.799108072636970 138.000000000000000
3.671291974413050 -1.836843471901888 0.797963218664710 139.000000000000000
3.666610509269049 -1.850532057302259 0.798344836655464 139.000000000000000
3.670626109468046 -1.868663771384424 0.800634544599982 139.000000000000000
3.655348574299581 -1.876981313443026 0.798726454646216 141.000000000000000
3.637985551046554 -1.884947118324469 0.796436746701698 139.000000000000000
3.640083702717129 -1.902180895445731 0.798344836655464 140.000000000000000
3.633421675646840 -1.914875570037194 0.798344836655464 140.000000000000000
3.631916211149978 -1.930311081086668 0.799489690627723 141.000000000000000
3.619964886930964 -1.940194768360242 0.798344836655464 139.000000000000000
3.602807468154818 -1.947218164320801 0.796055128710945 139.000000000000000
3.606674641702075 -1.964789950780686 0.798344836655464 140.000000000000000
3.603235757703096 -1.979258033369125 0.799108072636970 140.000000000000000
3.598022338799805 -1.992774820213657 0.799489690627723 141.000000000000000
3.580759722319431 -1.999578955336540 0.797199982683204 139.000000000000000
3.572047323361743 -2.011102785377480 0.796818364692451 139.000000000000000
3.570127636785712 -2.026466717890310 0.797963218664710 139.000000000000000
3.568144151801917 -2.041841717716680 0.799108072636970 139.000000000000000
3.564396197174599 -2.056246492815544 0.799871308618476 140.000000000000000
3.550408298331543 -2.064728175069076 0.798344836655464 138.000000000000000
3.536404700055234 -2.073137306382792 0.796818364692451 137.000000000000000
3.532526963973096 -2.087466607893258 0.797581600673957 137.000000000000000
3.528592239483801 -2.101794073937847 0.798344836655464 140.000000000000000
3.524600492237516 -2.116119481117615 0.799108072636970 140.000000000000000
3.510473773610585 -2.124344010526220 0.797581600673957 140.000000000000000
3.494656570783507 -2.131473461391876 0.795673510720192 139.000000000000000
3.493885111729925 -2.147771639081275 0.797199982683204 139.000000000000000
3.499718036192309 -2.168226215274506 0.800252926609229 141.000000000000000
3.490462895622496 -2.179389516339745 0.799871308618476 139.000000000000000
3.472864196367190 -2.185286677728402 0.797581600673957 139.000000000000000
3.463556966865128 -2.196344536927195 0.797199982683204 139.000000000000000
3.461603925565435 -2.210384533128916 0.798344836655464 61.000000000000000
3.485235928737734 -2.242639133915547 0.805595578479772 137.000000000000000
3.468757419278072 -2.250056085298783 0.803687488526007 135.000000000000000
3.454308749606297 -2.257854017845265 0.802161016562994 136.000000000000000
3.436963806055920 -2.262818968788836 0.799871308618476 135.000000000000000
3.435588132054845 -2.279143651497854 0.801397780581488 137.000000000000000
3.434140289083203 -2.295486249048639 0.802924252544501 136.000000000000000
3.429363380148267 -2.309653053530943 0.803687488526007 136.000000000000000
3.418031214491783 -2.319404936925781 0.802924252544501 136.000000000000000
3.403431430017019 -2.326889790783263 0.801397780581488 137.000000000000000
3.398521941943942 -2.340983193795334 0.802161016562994 137.000000000000000
3.400007120308199 -2.359547968084753 0.804450724507513 137.000000000000000
3.394553693931099 -2.374244236984122 0.805213960489019 137.000000000000000
3.379825931670124 -2.381555603465293 0.803687488526007 137.000000000000000
3.368290363253025 -2.391066011947948 0.802924252544501 135.000000000000000
3.366311151711870 -2.407377050172997 0.804450724507513 137.000000000000000
3.364259031596544 -2.423703349647105 0.805977196470525 138.000000000000000
3.355778231851713 -2.435432039166707 0.805977196470525 137.000000000000000
3.340917041979723 -2.442496335810721 0.804450724507513 138.000000000000000
3.335532426789232 -2.456471841416286 0.805213960489019 138.000000000000000
3.330090913858119 -2.470439488068695 0.805977196470525 137.000000000000000
3.324592492541542 -2.484399048700415 0.806740432452031 138.000000000000000
3.319473146918386 -2.497770976761906 0.807503668433538 138.000000000000000
3.304475599243362 -2.504599323799066 0.805977196470525 137.000000000000000
3.292153064066479 -2.514310776453714 0.805213960489019 138.000000000000000
3.289580797042314 -2.530575439376894 0.806740432452031 137.000000000000000
3.290038829701681 -2.549257682343065 0.809030140396550 138.000000000000000
3.284215612152533 -2.563142309835291 0.809793376378056 137.000000000000000
3.268427589977941 -2.567383581206776 0.807885286424291 139.000000000000000
3.260985489673116 -2.579995009175156 0.808266904415044 138.000000000000000
3.258101326465663 -2.596256234283687 0.809793376378056 138.000000000000000
3.249018851498943 -2.607613313008412 0.809793376378056 137.000000000000000
3.248599232201983 -2.626910750804797 0.812083084322575 137.000000000000000
3.233320694707905 -2.633275386915273 0.810556612359562 139.000000000000000
3.223647540348353 -2.645108412478816 0.810556612359562 137.000000000000000
3.215908117887001 -2.657595560627084 0.810938230350315 139.000000000000000
3.218109203663691 -2.676473172519354 0.813609556285587 138.000000000000000
3.214767126131241 -2.692732734639102 0.815136028248599 137.000000000000000
3.199345624714567 -2.698874406774152 0.813609556285587 138.000000000000000
3.186912896962635 -2.707483526587252 0.812846320304081 136.000000000000000
3.184901385440896 -2.724973103717182 0.814754410257846 139.000000000000000
3.185781100057407 -2.745044616818852 0.817425736193118 138.000000000000000
3.179145317944601 -2.758721778868387 0.818188972174624 138.000000000000000
3.166539593819701 -2.767218489129707 0.817425736193118 138.000000000000000
3.148501650155969 -2.769923214534338 0.815136028248599 137.000000000000000
3.147630524242362 -2.788708168429765 0.817425736193118 138.000000000000000
3.146176458221258 -2.808069850337876 0.819715444137637 137.000000000000000
3.140735682134406 -2.822972147569768 0.820860298109896 139.000000000000000
3.124078260006629 -2.826785507623482 0.818952208156130 138.000000000000000
3.117094226591187 -2.840317970438192 0.819715444137637 138.000000000000000
3.115340833518582 -2.859689322454825 0.822005152082155 138.000000000000000
3.111106322709036 -2.875877103249961 0.823531624045167 137.000000000000000
3.112544694255281 -2.897420832094499 0.826584567971192 131.000000000000000
3.092385583704778 -2.898869153875822 0.823913242035921 135.000000000000000
3.081327721480237 -2.907760502007505 0.823531624045167 138.000000000000000
3.079697874198734 -2.926613081923640 0.825821331989686 137.000000000000000
3.078487890345489 -2.944952362014583 0.828111039934204 137.000000000000000
3.076672805823715 -2.963852736528467 0.830400747878723 134.000000000000000
3.053625943678826 -2.962271345330666 0.826966185961945 135.000000000000000
3.041862714529804 -2.971540539508968 0.826584567971192 138.000000000000000
3.037069855719893 -2.987647702962422 0.828111039934204 137.000000000000000
3.034991057687842 -3.006520892606151 0.830400747878723 137.000000000000000
3.024477851075040 -3.017096671682723 0.830400747878723 136.000000000000000
3.013927792154091 -3.027635688388487 0.830400747878723 136.000000000000000
3.003341009474129 -3.038137814308853 0.830400747878723 136.000000000000000
2.998218951208296 -3.054206970966741 0.831927219841735 135.000000000000000
2.990280375085501 -3.067465710184777 0.832690455823242 135.000000000000000
2.987747796429340 -3.086348527150812 0.834980163767760 136.000000000000000
2.974235060623510 -3.093928234712746 0.834216927786254 135.000000000000000
2.960705846504401 -3.101451246447652 0.833453691804748 135.000000000000000
2.957965739412962 -3.120315954231986 0.835743399749266 138.000000000000000
2.952438533460747 -3.136340202857315 0.837269871712279 136.000000000000000
2.942570876639800 -3.145600069601059 0.837269871712279 136.000000000000000
2.934245110537543 -3.158729197271526 0.838033107693785 134.000000000000000
2.923201211569440 -3.168952380060019 0.838033107693785 137.000000000000000
2.917426105417838 -3.184927727850823 0.839559579656797 137.000000000000000
2.914217106776240 -3.203805929131457 0.841849287601316 137.000000000000000
2.903015982667728 -3.213958926517401 0.841849287601316 135.000000000000000
2.892342149028778 -3.223568002992454 0.841849287601316 136.000000000000000
2.881072175678904 -3.233644522128861 0.841849287601316 135.000000000000000
2.880174230999793 -3.255444765042845 0.844902231527340 136.000000000000000
2.868793061116476 -3.265478616014822 0.844902231527340 137.000000000000000
2.864547234101302 -3.284849305721116 0.847191939471859 137.000000000000000
2.855633845915538 -3.297796743051865 0.847955175453365 138.000000000000000
2.838408774248880 -3.302285584284711 0.846428703490353 138.000000000000000
2.834511417018448 -3.321133253105563 0.848718411434871 137.000000000000000
2.833638969242576 -3.342494839214646 0.851771355360896 138.000000000000000
2.827011487033150 -3.358373545344073 0.853297827323908 137.000000000000000
2.815859175158983 -3.367729787788396 0.853297827323908 137.000000000000000
2.804086449231437 -3.377538453240900 0.853297827323908 138.000000000000000
2.798586520283099 -3.397372434394415 0.855587535268427 136.000000000000000
2.796654086414071 -3.419278059537160 0.858640479194452 138.000000000000000
2.793327386526305 -3.437188578555880 0.860930187138970 137.000000000000000
2.778846639013479 -3.443862391702079 0.860166951157464 137.000000000000000
2.766808386197373 -3.453541395467029 0.860166951157464 137.000000000000000
2.759625039009577 -3.469324154445979 0.861693423120476 136.000000000000000
2.757232296285339 -3.491261632275782 0.864746367046501 137.000000000000000
2.752297111183425 -3.510134620842276 0.867036074991020 135.000000000000000
2.737615690662466 -3.516622200156433 0.866272839009513 137.000000000000000
2.727724876175295 -3.529263583888096 0.867036074991020 136.000000000000000
2.722559750221490 -3.548108945564863 0.869325782935538 135.000000000000000
2.714916789436042 -3.563837703456263 0.870852254898550 135.000000000000000
2.704828635542866 -3.576424539733118 0.871615490880057 135.000000000000000
2.694685660678827 -3.588984333631357 0.872378726861563 134.000000000000000
2.683314640667793 -3.599942766160475 0.872760344852316 135.000000000000000
2.676571089853417 -3.617178227584974 0.874668434806081 135.000000000000000
2.666253019884228 -3.629663651599179 0.875431670787588 134.000000000000000
2.667447793454565 -3.657983974338952 0.880011086676625 136.000000000000000
2.645453210792984 -3.654550276760263 0.876958142750600 134.000000000000000
2.639554171679894 -3.673328326166243 0.879247850695119 136.000000000000000
2.626715781892286 -3.682519710497965 0.879247850695119 135.000000000000000
2.620652275428905 -3.701279938615420 0.881537558639637 135.000000000000000
2.619005247183180 -3.726467532780544 0.885353738547168 136.000000000000000
2.601488420601708 -3.729146197230353 0.883827266584155 136.000000000000000
