# This PCD file was generated using the MATLABÂ® pcwrite function
# from Computer Vision ToolboxÂ®.
# .PCD v.7 - Point Cloud Data file format
VERSION .7
FIELDS x y z intensity
SIZE 8 8 8 8
TYPE F F F F
COUNT 1 1 1 1
WIDTH 681
HEIGHT 1
VIEWPOINT 0 0 0 1 0 0 0
POINTS 681
DATA ascii
nan nan nan nan
nan nan nan nan
nan nan nan nan
nan nan nan nan
nan nan nan nan
nan nan nan nan
nan nan nan nan
nan nan nan nan
nan nan nan nan
nan nan nan nan
nan nan nan nan
nan nan nan nan
nan nan nan nan
nan nan nan nan
nan nan nan nan
nan nan nan nan
nan nan nan nan
nan nan nan nan
nan nan nan nan
nan nan nan nan
nan nan nan nan
nan nan nan nan
nan nan nan nan
nan nan nan nan
nan nan nan nan
nan nan nan nan
nan nan nan nan
nan nan nan nan
nan nan nan nan
nan nan nan nan
nan nan nan nan
nan nan nan nan
nan nan nan nan
nan nan nan nan
nan nan nan nan
nan nan nan nan
nan nan nan nan
nan nan nan nan
nan nan nan nan
0.984168382166451 3.080094641364018 0.056441082418175 1.000000000000000
0.972763705785245 3.008143853384727 0.055184509154690 1.000000000000000
0.986463261435221 3.016305313702162 0.055393938031938 1.000000000000000
0.995729680737952 3.009046633688749 0.055324128406189 1.000000000000000
1.001148398293883 2.990382574970825 0.055044889903192 1.000000000000000
1.002600257550828 2.960353415074464 0.054556222522948 2.000000000000000
0.999966384126095 2.919000262564730 0.053858126265457 2.000000000000000
1.010149504386244 2.915491944942294 0.053858126265457 6.000000000000000
1.020472998042780 2.914013452519870 0.053893031078331 7.000000000000000
1.027968538003422 2.902893600460080 0.053753411826833 10.000000000000000
1.034050737915808 2.887991709355425 0.053543982949586 12.000000000000000
1.044806065889784 2.886244893883062 0.053578887762460 15.000000000000000
1.052495182515298 2.879192016753841 0.053509078136711 19.000000000000000
1.063925247863776 2.879252050402004 0.053578887762460 28.000000000000000
1.075871050323382 2.879079592568536 0.053648697388210 30.000000000000000
1.079555719295221 2.858470023330468 0.053334554072338 37.000000000000000
1.086393358297495 2.849458905690633 0.053229839633715 46.000000000000000
1.097052114400386 2.847515324855809 0.053264744446589 45.000000000000000
1.108435946572864 2.847395507773204 0.053334554072338 54.000000000000000
1.114708876107658 2.834204320922603 0.053160030007966 52.000000000000000
1.122134337819649 2.822666711450234 0.053020410756467 56.000000000000000
1.127509161439569 2.807598634253621 0.052810981879220 61.000000000000000
1.139067385726435 2.809403748103420 0.052915696317844 59.000000000000000
1.146593611609535 2.799858941091347 0.052810981879220 63.000000000000000
1.158927815389721 2.803433350831781 0.052950601130718 70.000000000000000
1.165624937654475 2.791989524498786 0.052810981879220 75.000000000000000
1.169148953187336 2.773162660429210 0.052531743376223 78.000000000000000
1.181171785741937 2.774584404172256 0.052636457814847 81.000000000000000
1.191333212248634 2.770236556812804 0.052636457814847 83.000000000000000
1.205774382610342 2.777066698965003 0.052845886692094 85.000000000000000
1.206951891800640 2.754736868163584 0.052496838563349 94.000000000000000
1.214942598341577 2.746849447889672 0.052427028937600 92.000000000000000
1.225674685745647 2.746457654263609 0.052496838563349 94.000000000000000
1.237718082602588 2.747632257894123 0.052601553001973 100.000000000000000
1.248956912250082 2.746935812665029 0.052671362627722 100.000000000000000
1.256869856281430 2.738924467924021 0.052601553001973 100.000000000000000
1.261380668337774 2.723633212250404 0.052392124124725 100.000000000000000
1.270880237701977 2.719213578729752 0.052392124124725 100.000000000000000
1.282923344420048 2.720186716805105 0.052496838563349 102.000000000000000
1.294988699003466 2.721108844951832 0.052601553001973 100.000000000000000
1.298419958788749 2.703953463394841 0.052357219311851 107.000000000000000
1.309594408163532 2.703003864729680 0.052427028937600 102.000000000000000
1.319021673932015 2.698416059530917 0.052427028937600 107.000000000000000
1.328432867837660 2.693795374984037 0.052427028937600 110.000000000000000
1.338669251410313 2.693190063339275 0.052496838563349 107.000000000000000
1.345373129861216 2.683138126667566 0.052392124124725 113.000000000000000
1.351586831637170 2.671051986068311 0.052252504873227 115.000000000000000
1.360902308702971 2.666317794618900 0.052252504873227 115.000000000000000
1.370651642180073 2.663568302592856 0.052287409686101 124.000000000000000
1.382704446681897 2.664092242857933 0.052392124124725 128.000000000000000
1.389213304008204 2.653934517420301 0.052287409686101 129.000000000000000
1.395668128893942 2.643763877562895 0.052182695247478 133.000000000000000
1.404888084126822 2.638875979919325 0.052182695247478 133.000000000000000
1.416928561886385 2.639241458695831 0.052287409686101 137.000000000000000
1.427576246196376 2.638045636997548 0.052357219311851 142.000000000000000
1.433902494556264 2.627780301288484 0.052252504873227 143.000000000000000
1.439210534851322 2.615750997997544 0.052112885621729 143.000000000000000
1.449302523621721 2.612459914137727 0.052147790434603 147.000000000000000
1.460365240818901 2.610875463451271 0.052217600060352 149.000000000000000
1.476345862204596 2.617954667418543 0.052461933750474 153.000000000000000
1.478556853964031 2.600616648381673 0.052217600060352 152.000000000000000
1.484642485671675 2.590234919247830 0.052112885621729 153.000000000000000
1.493675047908227 2.585036769256587 0.052112885621729 155.000000000000000
1.511747819222315 2.595358537411229 0.052427028937600 156.000000000000000
1.519785585708674 2.588341329655315 0.052392124124725 156.000000000000000
1.520663095737844 2.569253587408836 0.052112885621729 155.000000000000000
1.527573141468972 2.560495228603930 0.052043075995979 155.000000000000000
1.540623701368039 2.562002259386153 0.052182695247478 155.000000000000000
1.551183525629966 2.560299854616381 0.052252504873227 153.000000000000000
1.564279823373158 2.561696254343466 0.052392124124725 153.000000000000000
1.567971734659251 2.547705234432271 0.052217600060352 151.000000000000000
1.576855332921013 2.542216470185515 0.052217600060352 150.000000000000000
1.586162430644629 2.536419930897772 0.052217600060352 148.000000000000000
1.593940344189458 2.529175981516885 0.052182695247478 144.000000000000000
1.621610760620106 2.554264187830624 0.052810981879220 76.000000000000000
1.611118840737752 2.518267866478177 0.052182695247478 119.000000000000000
1.617732331016659 2.509267293919798 0.052112885621729 128.000000000000000
1.628660262383954 2.506958858068505 0.052182695247478 129.000000000000000
1.645068021264350 2.512970077826270 0.052427028937600 123.000000000000000
1.651627731197323 2.503873910388843 0.052357219311851 110.000000000000000
1.658815180559887 2.496717559546842 0.052322314498976 115.000000000000000
1.663070558060921 2.484265139880936 0.052182695247478 115.000000000000000
1.676204991577744 2.485076095739390 0.052322314498976 113.000000000000000
1.688241300572840 2.484171636114723 0.052427028937600 110.000000000000000
1.699161916291222 2.481563391123909 0.052496838563349 102.000000000000000
1.703271779100950 2.469033002635691 0.052357219311851 102.000000000000000
1.709597429150305 2.459788335818955 0.052287409686101 107.000000000000000
1.722761189956356 2.460357959528844 0.052427028937600 105.000000000000000
1.735949702480917 2.460865574946056 0.052566648189098 102.000000000000000
1.746845922163188 2.458051001816388 0.052636457814847 102.000000000000000
1.746414977209088 2.441166481973215 0.052392124124725 100.000000000000000
1.756094769638326 2.436677772436415 0.052427028937600 102.000000000000000
1.766188953865349 2.431842989329531 0.052461933750474 100.000000000000000
1.777028409357458 2.428890785579779 0.052531743376223 100.000000000000000
1.792614250605465 2.432331498228713 0.052741172253471 100.000000000000000
1.796325799082917 2.419636894282054 0.052601553001973 100.000000000000000
1.804339727364631 2.413666759284618 0.052601553001973 100.000000000000000
1.812754003998725 2.407353733377871 0.052601553001973 100.000000000000000
1.825980024762307 2.407384331160767 0.052741172253471 100.000000000000000
1.839228288075029 2.407351849280535 0.052880791504969 100.000000000000000
1.840720352340587 2.391087265667668 0.052671362627722 100.000000000000000
1.846604886955933 2.381486818794563 0.052601553001973 100.000000000000000
1.862291739359612 2.384482433926891 0.052810981879220 100.000000000000000
1.873076498872941 2.381110675978690 0.052880791504969 100.000000000000000
1.885928484566828 2.381156565021016 0.053020410756467 100.000000000000000
1.886746641039458 2.365179509618514 0.052810981879220 100.000000000000000
1.892075083791627 2.355791638928248 0.052741172253471 100.000000000000000
1.905317344885710 2.355391567694739 0.052880791504969 100.000000000000000
1.916053696976603 2.351827048093076 0.052950601130718 100.000000000000000
1.931862182691156 2.354399821248999 0.053160030007966 96.000000000000000
1.930693086634098 2.334636551395765 0.052880791504969 100.000000000000000
1.941390239083603 2.330956064242912 0.052950601130718 100.000000000000000
1.954655414719320 2.330293466112844 0.053090220382216 100.000000000000000
1.962777748475005 2.323456248477935 0.053090220382216 96.000000000000000
1.976059272692269 2.322683003549876 0.053229839633715 100.000000000000000
1.976348399452831 2.306659888241751 0.053020410756467 100.000000000000000
1.985694482414344 2.301261079495125 0.053055315569342 94.000000000000000
1.996338594713667 2.297334528606939 0.053125125195091 97.000000000000000
2.009613288977858 2.296371332289845 0.053264744446589 97.000000000000000
2.024227679918067 2.296843604696353 0.053439268510962 100.000000000000000
2.029178901647631 2.287126731505365 0.053369458885213 96.000000000000000
2.033153076959791 2.275556071084160 0.053264744446589 94.000000000000000
2.047374309380999 2.276235199154010 0.053439268510962 100.000000000000000
2.056649840426732 2.270556748169935 0.053474173323837 97.000000000000000
2.074393219641908 2.273343593104191 0.053718507013959 100.000000000000000
2.076903904321125 2.260198990133791 0.053578887762460 96.000000000000000
2.082064491116814 2.250000051863875 0.053509078136711 100.000000000000000
2.095358885893931 2.248570425086546 0.053648697388210 99.000000000000000
2.103195095787104 2.241242558565587 0.053648697388210 100.000000000000000
2.113752595865455 2.236794198283838 0.053718507013959 100.000000000000000
2.112888827008013 2.221079373471751 0.053509078136711 100.000000000000000
2.123395607652773 2.216578533728740 0.053578887762460 100.000000000000000
2.137674874644147 2.216722062197268 0.053753411826833 94.000000000000000
2.155151471815393 2.219288709702059 0.053997745516955 100.000000000000000
2.165681336722034 2.214611714783147 0.054067555142704 100.000000000000000
2.167786188739437 2.201339323603034 0.053927935891206 100.000000000000000
2.177248250736849 2.194798866977673 0.053962840704081 92.000000000000000
2.189136036794455 2.191429695858107 0.054067555142704 100.000000000000000
2.199226925491465 2.186978298001442 0.054137364768453 99.000000000000000
2.215384633621972 2.187718755035042 0.054346793645701 100.000000000000000
2.215489658395819 2.173358446908744 0.054172269581328 94.000000000000000
2.224494983307486 2.167007072319798 0.054207174394203 100.000000000000000
2.235297500478654 2.161619553334856 0.054276984019952 96.000000000000000
2.252925680511174 2.163499319160609 0.054521317710074 94.000000000000000
2.264428472900001 2.160157329393269 0.054626032148697 100.000000000000000
2.263244662730455 2.143988439780053 0.054416603271450 96.000000000000000
2.276540870834654 2.141555808752932 0.054556222522948 100.000000000000000
2.281079838305824 2.130866021617565 0.054486412897199 100.000000000000000
2.291436151683007 2.125610496150270 0.054556222522948 100.000000000000000
2.313549838757421 2.131147239127361 0.054905270651694 100.000000000000000
2.315072802034261 2.117659709374466 0.054765651400196 99.000000000000000
2.316529866570556 2.104187580492360 0.054626032148697 96.000000000000000
2.336856818284367 2.108550636801922 0.054940175464568 94.000000000000000
2.348670781617265 2.104383905011843 0.055044889903192 100.000000000000000
2.361611237325922 2.101901765945613 0.055184509154690 100.000000000000000
2.359943594643131 2.085699875497753 0.054975080277443 100.000000000000000
2.367572215550456 2.077036240584644 0.054975080277443 100.000000000000000
2.383854888605773 2.076640204758569 0.055184509154690 67.000000000000000
2.756255010503014 2.385859457849543 0.063631473870336 46.000000000000000
2.775181871930683 2.385348079194274 0.063875807560458 45.000000000000000
2.782798984043570 2.373376951422266 0.063840902747583 49.000000000000000
2.792592668817051 2.364941028287547 0.063875807560458 43.000000000000000
2.808483383413228 2.361613567057603 0.064050331624830 47.000000000000000
2.821314818131447 2.355640640474799 0.064155046063454 45.000000000000000
2.834857388773412 2.351872824225160 0.064294665314952 45.000000000000000
2.839962770000044 2.339420148867103 0.064224855689203 45.000000000000000
2.855851001837749 2.335822719126964 0.064399379753576 46.000000000000000
2.863987145896378 2.325839708154384 0.064399379753576 47.000000000000000
2.888061602971629 2.327876246394493 0.064748427882322 46.000000000000000
2.897731089952878 2.319030325400125 0.064783332695196 45.000000000000000
2.905808362470752 2.308901227943706 0.064783332695196 43.000000000000000
2.916990153446080 2.301221092079098 0.064853142320946 45.000000000000000
2.921856590445258 2.288558757095067 0.064783332695196 38.000000000000000
2.945613058065976 2.290621200705044 0.065132380823942 41.000000000000000
2.961505103152951 2.286435333039826 0.065306904888315 39.000000000000000
2.963119800596077 2.271217794972158 0.065167285636817 40.000000000000000
2.967847100011305 2.258438821303662 0.065097476011067 40.000000000000000
2.991668004228142 2.260119312106248 0.065446524139813 40.000000000000000
3.005938083313757 2.254461952901196 0.065586143391311 40.000000000000000
3.021808973798385 2.249926678913634 0.065760667455684 36.000000000000000
3.022431697540250 2.235665563481387 0.065621048204186 36.000000000000000
3.033440848348172 2.227468817014122 0.065690857829935 36.000000000000000
3.044816844294328 2.218691037372557 0.065760667455684 37.000000000000000
3.073606165837531 2.223285133891340 0.066214430023054 32.000000000000000
3.081348153776015 2.212542701164854 0.066214430023054 34.000000000000000
3.093937761345996 2.205255291342751 0.066319144461677 36.000000000000000
3.096719400012261 2.190977089529789 0.066214430023054 34.000000000000000
3.107621373990426 2.182452701776613 0.066284239648803 32.000000000000000
3.129603843478480 2.182429938914700 0.066598382964674 30.000000000000000
3.138847115325541 2.172630385402102 0.066633287777548 28.000000000000000
3.146789120735041 2.161111342477185 0.066633287777548 30.000000000000000
3.149356621166095 2.146734921141119 0.066528573338925 28.000000000000000
3.166394518943811 2.143004383911239 0.066738002216172 27.000000000000000
3.185475474097083 2.139743762837621 0.066982335906294 28.000000000000000
3.202908257356640 2.135266719101369 0.067191764783542 28.000000000000000
3.208674505696335 2.122970059292702 0.067156859970667 27.000000000000000
3.210682805345548 2.109024403186932 0.067052145532043 28.000000000000000
3.239802483112957 2.112000668273282 0.067505908099413 27.000000000000000
3.250879938446588 2.102283793444509 0.067575717725162 27.000000000000000
3.268296195412204 2.097403431139133 0.067785146602409 27.000000000000000
3.275233465630087 2.086553838154390 0.067785146602409 27.000000000000000
3.285877476278095 2.077245511682134 0.067854956228158 27.000000000000000
3.300245576035264 2.069437574696325 0.067994575479657 27.000000000000000
3.322729977593413 2.067412734540105 0.068308718795528 28.000000000000000
3.338074311049756 2.061636713719730 0.068483242859900 28.000000000000000
3.340135367652392 2.046837585791448 0.068378528421277 27.000000000000000
3.345551157536454 2.034126987535088 0.068343623608402 27.000000000000000
3.368041663619273 2.031732625904722 0.068657766924273 28.000000000000000
3.382985458141784 2.026279226986864 0.068832290988646 27.000000000000000
7.239071765879706 4.301664750197328 0.146984167014802 9.000000000000000
nan nan nan nan
7.275589424208608 4.251511189129891 0.147088881453425 84.000000000000000
7.304225956838321 4.234111690622940 0.147368119956422 84.000000000000000
7.344964206450157 4.223541742821912 0.147891692149540 90.000000000000000
7.376297845355928 4.209072436953210 0.148240740278286 93.000000000000000
7.397906408622153 4.187238712824135 0.148380359529784 92.000000000000000
7.425699365945236 4.170517144253608 0.148659598032781 92.000000000000000
7.454187457261029 4.152356267829595 0.148938836535777 98.000000000000000
7.493141021089087 4.139849400539277 0.149427503916021 92.000000000000000
7.528590419380399 4.125199190961300 0.149846361670516 90.000000000000000
7.547173862096945 4.099486777252069 0.149916171296265 90.000000000000000
7.575521929575542 4.080703962969538 0.150195409799262 90.000000000000000
7.611939908619822 4.067812637576381 0.150649172366631 84.000000000000000
7.650829944526101 4.054325901224444 0.151137839746875 84.000000000000000
7.676622721065470 4.035445828652254 0.151382173436997 90.000000000000000
7.701301893722318 4.014170540455005 0.151591602314245 90.000000000000000
7.733031878001646 3.996444421301679 0.151940650442990 90.000000000000000
7.764731732349460 3.978545585054202 0.152289698571736 90.000000000000000
7.801749185550860 3.963191022501407 0.152743461139105 87.000000000000000
7.833395772457692 3.944928054559175 0.153092509267851 87.000000000000000
7.857853189543449 3.922919546376504 0.153301938145098 84.000000000000000
7.885836746472740 3.902562187865766 0.153581176648095 82.000000000000000
7.913773753276162 3.882057180749258 0.153860415151091 84.000000000000000
7.952453823539609 3.866651076214660 0.154349082531335 84.000000000000000
7.991122459179241 3.851022086875565 0.154837749911579 84.000000000000000
8.022560796460043 3.831722761998365 0.155186798040325 87.000000000000000
8.049204015485277 3.808279385809906 0.155431131730447 90.000000000000000
8.085985704836849 3.791194941031637 0.155884894297816 87.000000000000000
8.123241301780959 3.777578333039318 0.156373561678060 82.000000000000000
8.161804202686218 3.760916164727477 0.156862229058304 80.000000000000000
8.182810671895130 3.734297246811841 0.157001848309802 80.000000000000000
8.214016927481733 3.713949731812957 0.157350896438548 76.000000000000000
8.251835142381537 3.698139999384906 0.157839563818792 87.000000000000000
8.290281074266796 3.680673291784966 0.158328231199036 87.000000000000000
8.330535784692239 3.663788154973092 0.158851803392155 90.000000000000000
8.356107025303904 3.640277434596465 0.159096137082276 87.000000000000000
8.383451539386460 3.617425020151189 0.159375375585273 84.000000000000000
8.407060522121148 3.592854306477895 0.159584804462520 45.000000000000000
6.300395931904029 2.665279817361538 0.119409364843894 70.000000000000000
6.278306465989522 2.630135867458553 0.118815983025026 73.000000000000000
nan nan nan nan
6.232729838298072 2.562585048254054 0.117629219387291 37.000000000000000
6.260158135415746 2.548352653771051 0.117978267516037 60.000000000000000
6.254177500898273 2.520505252092766 0.117699029013040 69.000000000000000
6.233654158644220 2.485714770743639 0.117140552007047 73.000000000000000
6.206952192204576 2.449990511851672 0.116477360562430 65.000000000000000
6.183380636785799 2.417017750057501 0.115883978743563 67.000000000000000
6.171264998435350 2.387482369176054 0.115500025801942 65.000000000000000
6.155283754878005 2.356631123924723 0.115046263234573 69.000000000000000
6.144772576869578 2.328046075016254 0.114697215105827 71.000000000000000
6.122902382749102 2.295351554727586 0.114138738099834 73.000000000000000
6.097129403358341 2.261447416171926 0.113510451468092 73.000000000000000
6.082458557894735 2.231884446588675 0.113091593713597 73.000000000000000
6.075174671010966 2.205180738447225 0.112812355210601 73.000000000000000
6.056486261484836 2.174500759622224 0.112323687830357 69.000000000000000
6.033889185649801 2.142639921439851 0.111765210824364 75.000000000000000
6.010406611941937 2.113061622735622 0.111206733818371 75.000000000000000
6.002635482821519 2.086815361059795 0.110927495315374 78.000000000000000
5.987190180583786 2.058048974768464 0.110508637560879 78.000000000000000
5.971617468219041 2.029415939043397 0.110089779806384 78.000000000000000
5.944544597882103 1.997095817757047 0.109461493174642 78.000000000000000
5.928706028349883 1.968770817812063 0.109042635420147 75.000000000000000
5.917219851664684 1.939762596594517 0.108693587291402 69.000000000000000
nan nan nan nan
3.780012813950408 1.211446478039107 0.069286053556016 36.000000000000000
3.759435227074336 1.190396946043544 0.068832290988646 57.000000000000000
3.734940041617451 1.168311946553296 0.068308718795528 68.000000000000000
3.723710856090925 1.150544849209154 0.068029480292531 78.000000000000000
3.731330770433344 1.139358226516110 0.068099289918280 78.000000000000000
3.733370591274062 1.125749202837907 0.068064385105406 90.000000000000000
3.714278813924123 1.105863000133301 0.067645527350911 94.000000000000000
3.716197834815611 1.092327082989242 0.067610622538036 100.000000000000000
3.718067638062335 1.078791250042146 0.067575717725162 92.000000000000000
3.702586441855546 1.060301002301922 0.067226669596416 65.000000000000000
3.483042417644494 0.984288623160767 0.063177711302966 100.000000000000000
3.467194812828975 0.966753685783299 0.062828663174221 105.000000000000000
3.464764042463764 0.953053952462906 0.062723948735597 100.000000000000000
3.479649244659696 0.944095611747795 0.062933377612844 100.000000000000000
3.482923554128983 0.931943617433895 0.062933377612844 100.000000000000000
3.493889547126981 0.921820822906149 0.063072996864343 100.000000000000000
3.493373947104811 0.908002788589953 0.063003187238593 100.000000000000000
3.488773659875454 0.893817946776167 0.062863567987095 77.000000000000000
nan nan nan nan
3.508207573960362 0.874044055384536 0.063107901677217 11.000000000000000
3.522889519665382 0.864652732536753 0.063317330554465 64.000000000000000
3.516167718449379 0.850000918660116 0.063142806490092 87.000000000000000
3.517168017369242 0.837258938644918 0.063107901677217 92.000000000000000
3.523963050500919 0.825889215027522 0.063177711302966 94.000000000000000
3.538515603517963 0.816280217890696 0.063387140180214 97.000000000000000
3.545243553292206 0.804808898659417 0.063456949805963 81.000000000000000
nan nan nan nan
3.546869494682390 0.779180889236422 0.063387140180214 7.000000000000000
3.549567734813384 0.766795257178574 0.063387140180214 7.000000000000000
3.562003073492998 0.756477375249845 0.063561664244587 9.000000000000000
3.568406930977441 0.745479047650065 0.063631473870336 46.000000000000000
3.563151990069620 0.731410062864849 0.063491854618837 87.000000000000000
3.563723135950253 0.718572630855239 0.063456949805963 94.000000000000000
3.576017768611480 0.708070585540774 0.063631473870336 76.000000000000000
nan nan nan nan
3.594623775658671 0.685711158344316 0.063875807560458 5.000000000000000
3.581270884312465 0.670216628844685 0.063596569057461 5.000000000000000
3.587522245281133 0.658433543980245 0.063666378683210 3.000000000000000
3.611447756474699 0.649802013903166 0.064050331624830 2.000000000000000
3.609755355570455 0.636497262943950 0.063980521999081 6.000000000000000
3.629689794466795 0.626956291902103 0.064294665314952 42.000000000000000
3.625941091831474 0.613282030369774 0.064189950876329 52.000000000000000
5.263547268475367 0.871374599733009 0.093126040749345 82.000000000000000
5.260634950607288 0.852036941276878 0.093021326310721 115.000000000000000
5.251726610043297 0.831791779869182 0.092811897433474 115.000000000000000
5.240765019708485 0.811313289884093 0.092567563743352 110.000000000000000
5.225770198862170 0.790323437020232 0.092253420427481 113.000000000000000
5.202779942093857 0.768279699694458 0.091799657860111 110.000000000000000
5.193554535800710 0.748402641376109 0.091590228982864 110.000000000000000
5.192174838643997 0.729712585743783 0.091520419357115 110.000000000000000
5.182803215070884 0.709955728808850 0.091310990479867 107.000000000000000
5.165428556163130 0.689215319198716 0.090961942351122 105.000000000000000
5.147972494512826 0.668604890155643 0.090612894222376 107.000000000000000
5.138371434739470 0.649127269575874 0.090403465345129 107.000000000000000
5.134541523626929 0.631352102820279 0.090298750906505 113.000000000000000
5.128771723575809 0.612476888076966 0.090159131655007 113.000000000000000
5.118960003886784 0.593189286465645 0.089949702777759 113.000000000000000
5.087217133177970 0.571521904921604 0.089356320958892 110.000000000000000
5.087096473273295 0.554432282815563 0.089321416146017 113.000000000000000
5.081046139713167 0.535832747420871 0.089181796894519 118.000000000000000
5.075018244236697 0.516396467130899 0.089042177643020 118.000000000000000
5.052908474874737 0.496332400424344 0.088623319888526 113.000000000000000
5.036609796080102 0.477873677202476 0.088309176572655 110.000000000000000
5.026298789421089 0.459198120553752 0.088099747695407 102.000000000000000
5.019979852004477 0.440074199735962 0.087960128443909 105.000000000000000
5.017500108313161 0.422213162911181 0.087890318818160 105.000000000000000
4.995024625668795 0.402767591126324 0.087471461063665 105.000000000000000
4.976462365668946 0.383791620863509 0.087122412934919 107.000000000000000
4.977771730121739 0.366418187274086 0.087122412934919 105.000000000000000
4.971041242570613 0.348480929557196 0.086982793683421 110.000000000000000
4.968236831064625 0.330860882630650 0.086912984057672 110.000000000000000
4.943417025332759 0.311879650938475 0.086459221490303 115.000000000000000
4.928506332663519 0.293670460598103 0.086179982987306 115.000000000000000
4.925508291963630 0.276241024906096 0.086110173361557 113.000000000000000
4.918364221698174 0.260342940264044 0.085970554110059 118.000000000000000
4.915248510578489 0.242975598266549 0.085900744484309 115.000000000000000
4.900164265864689 0.223372167595410 0.085621505981313 115.000000000000000
4.874941080022213 0.205172907065333 0.085167743413944 107.000000000000000
4.875561591809308 0.189856840687055 0.085167743413944 110.000000000000000
4.874196171854396 0.172765963290455 0.085132838601069 113.000000000000000
4.862750298509978 0.156216352607530 0.084923409723822 115.000000000000000
4.851272712171323 0.138897853082857 0.084713980846574 113.000000000000000
4.829759414532769 0.120567176817043 0.084330027904954 105.000000000000000
4.822153909481992 0.103535734692457 0.084190408653456 107.000000000000000
4.822485938429018 0.086702645548769 0.084190408653456 102.000000000000000
4.814761264606758 0.069752631801568 0.084050789401957 105.000000000000000
4.794988797818892 0.051888797434226 0.083701741273212 107.000000000000000
4.783142860825095 0.035062896467628 0.083492312395964 107.000000000000000
4.785229087984403 0.020044437964537 0.083527217208839 113.000000000000000
4.771272038556002 0.003330976804405 0.083282883518717 110.000000000000000
4.771254597612864 -0.013323890982847 0.083282883518717 110.000000000000000
4.751182461257791 -0.029852952682449 0.082933835389971 110.000000000000000
4.737052110033611 -0.046300681795751 0.082689501699849 113.000000000000000
4.736861630750655 -0.062835797368032 0.082689501699849 115.000000000000000
4.728601874151813 -0.080061430637594 0.082549882448351 113.000000000000000
4.724295042389812 -0.096485180407229 0.082480072822602 100.000000000000000
4.697960393155467 -0.111533980330850 0.082026310255233 110.000000000000000
4.681550811470346 -0.127496728904247 0.081747071752236 110.000000000000000
4.687073499299408 -0.144021863835237 0.081851786190860 113.000000000000000
4.678548112063435 -0.160108353566427 0.081712166939361 113.000000000000000
4.665971078984160 -0.175986345412843 0.081502738062114 29.000000000000000
4.655338348849175 -0.191860833267725 0.081328213997741 33.000000000000000
4.638694796815423 -0.206585685778998 0.081048975494745 37.000000000000000
4.659916735337713 -0.223831851812440 0.081432928436365 78.000000000000000
4.671047215555909 -0.241529367861691 0.081642357313612 102.000000000000000
4.658195734087679 -0.257171501324760 0.081432928436365 92.000000000000000
4.645339640422280 -0.271916105151513 0.081223499559117 90.000000000000000
4.628395308992262 -0.287139147976199 0.080944261056121 90.000000000000000
4.627364808550910 -0.303293513261798 0.080944261056121 90.000000000000000
4.622288034724213 -0.319168681344543 0.080874451430372 90.000000000000000
4.621145767554484 -0.335301533129694 0.080874451430372 90.000000000000000
4.592032104401365 -0.349306853453828 0.080385784050128 96.000000000000000
4.582811246421482 -0.364699373056622 0.080246164798630 92.000000000000000
4.585495942867375 -0.381025330127946 0.080315974424379 92.000000000000000
4.576307100409282 -0.394741782453781 0.080176355172880 94.000000000000000
4.574901314018800 -0.410713670408298 0.080176355172880 94.000000000000000
4.557437111239392 -0.425989938667323 0.079897116669884 94.000000000000000
4.539999524200100 -0.440351352602746 0.079617878166887 92.000000000000000
4.534455414105103 -0.455796228905307 0.079548068541138 96.000000000000000
4.528858845599899 -0.471207770512469 0.079478258915389 98.000000000000000
4.531162880508425 -0.487441335028093 0.079548068541138 96.000000000000000
4.509559132710098 -0.501046847866216 0.079199020412393 96.000000000000000
4.496042224919082 -0.513849157023522 0.078989591535145 92.000000000000000
4.498193079623177 -0.530008140992426 0.079059401160894 94.000000000000000
4.484309771861478 -0.545043623812370 0.078849972283647 96.000000000000000
4.490316822272530 -0.561686282586147 0.078989591535145 98.000000000000000
4.464528573534712 -0.574295443030223 0.078570733780650 94.000000000000000
4.458531807335097 -0.589351955870225 0.078500924154901 96.000000000000000
4.444663505961024 -0.602522000050994 0.078291495277654 92.000000000000000
4.446494475572254 -0.618584177456281 0.078361304903403 96.000000000000000
4.444308124271803 -0.634101571063727 0.078361304903403 94.000000000000000
4.426238426286151 -0.647296365333952 0.078082066400406 88.000000000000000
4.418019092650123 -0.661854084795142 0.077977351961783 96.000000000000000
4.401845807916738 -0.675149658369327 0.077733018271661 90.000000000000000
4.407484987179960 -0.690981866700171 0.077872637523159 86.000000000000000
4.405046158442243 -0.706362650710257 0.077872637523159 90.000000000000000
4.382820111655611 -0.718499799550779 0.077523589394413 86.000000000000000
4.370424311987615 -0.732142373640643 0.077349065330041 82.000000000000000
4.360087983575285 -0.745283487619745 0.077209446078542 87.000000000000000
4.361399732723354 -0.761186106046642 0.077279255704291 84.000000000000000
4.350705970557209 -0.775762227906067 0.077139636452793 87.000000000000000
4.344036733167374 -0.790228512953934 0.077069826827044 80.000000000000000
4.329595094160051 -0.802443019691881 0.076860397949797 82.000000000000000
4.322837815363363 -0.816808684827333 0.076790588324047 80.000000000000000
4.323887521386928 -0.832649495058639 0.076860397949797 82.000000000000000
4.324879262479628 -0.848507576946762 0.076930207575546 80.000000000000000
4.306203624761897 -0.860464392655351 0.076650969072549 82.000000000000000
4.291416503157715 -0.873098555352248 0.076441540195302 84.000000000000000
4.288342675671942 -0.888073075227129 0.076441540195302 84.000000000000000
4.285216596083987 -0.903036774211845 0.076441540195302 87.000000000000000
4.282038302484140 -0.917989469978449 0.076441540195302 87.000000000000000
4.263177485348316 -0.929523013281617 0.076162301692305 87.000000000000000
4.257954577165362 -0.943965803533636 0.076127396879431 90.000000000000000
4.248781264889080 -0.957504211417402 0.076022682440807 87.000000000000000
4.245752214762923 -0.970847404379412 0.076022682440807 87.000000000000000
4.242337458321430 -0.985661930621944 0.076022682440807 84.000000000000000
4.194107909676685 -0.989899395333781 0.075219871744692 50.000000000000000
4.184793144571326 -1.003135110686352 0.075115157306068 54.000000000000000
4.186917016926965 -1.019886201623553 0.075219871744692 57.000000000000000
4.191096325928956 -1.036415232376297 0.075359490996190 81.000000000000000
4.173876292884814 -1.047630853324303 0.075115157306068 53.000000000000000
4.162442660211270 -1.060219679663965 0.074975538054570 59.000000000000000
4.174393358751701 -1.078017070836528 0.075254776557567 59.000000000000000
7.290820982421305 -1.909991193193012 0.131556239724243 36.000000000000000
7.287636638718029 -1.937728258850323 0.131626049349992 58.000000000000000
7.278897563993237 -1.962634459998280 0.131591144537118 67.000000000000000
7.251130155682336 -1.980964446482542 0.131207191595497 63.000000000000000
7.240316815373375 -2.005196100153716 0.131137381969748 65.000000000000000
7.223646869199272 -2.027755073710041 0.130962857905375 69.000000000000000
7.220371435706157 -2.054052280366371 0.131032667531125 69.000000000000000
7.210873097507709 -2.079948258443559 0.130997762718250 63.000000000000000
7.188213462909487 -2.100618927619617 0.130718524215254 65.000000000000000
7.169702763059750 -2.121040703382997 0.130509095338006 65.000000000000000
7.166086376435805 -2.147202644148806 0.130578904963755 65.000000000000000
7.154341477825710 -2.172291277590711 0.130509095338006 62.000000000000000
7.144803782026266 -2.196663697963341 0.130474190525132 60.000000000000000
7.127932907001608 -2.217374679706571 0.130299666460759 65.000000000000000
7.102983220563871 -2.236836411577934 0.129985523144888 61.000000000000000
7.100847665211632 -2.263438747910793 0.130090237583511 62.000000000000000
7.091000415379344 -2.287597586881899 0.130055332770637 67.000000000000000
7.079170091481729 -2.311094671285301 0.129985523144888 67.000000000000000
7.055869490389011 -2.330773694360293 0.129706284641891 61.000000000000000
7.042000845683692 -2.353487523313225 0.129601570203267 63.000000000000000
7.029954027437403 -2.376773421072850 0.129531760577518 63.000000000000000
7.021614711045816 -2.401298059930646 0.129531760577518 65.000000000000000
7.013189838494862 -2.425793439729384 0.129531760577518 62.000000000000000
6.993354242410756 -2.446297646378929 0.129322331700271 65.000000000000000
6.971575863015262 -2.466026126514619 0.129077998010149 69.000000000000000
6.966691131190700 -2.491693305038100 0.129147807635898 67.000000000000000
6.952309473026270 -2.513956417953039 0.129043093197274 16.000000000000000
3.951611221950477 -1.444520459238216 0.073439726288089 45.000000000000000
3.933414690353747 -1.453453579654942 0.073195392597967 77.000000000000000
3.914948827890853 -1.462960634467057 0.072951058907845 82.000000000000000
3.911689017528801 -1.477323958799938 0.072985963720720 90.000000000000000
3.908636900225109 -1.491000179395448 0.073020868533594 87.000000000000000
3.907140273697648 -1.506073250016770 0.073090678159343 87.000000000000000
3.892277868763924 -1.516753185855420 0.072916154094971 93.000000000000000
3.883238339806425 -1.528865398377149 0.072846344469221 98.000000000000000
3.880005328181756 -1.542473006825165 0.072881249282096 102.000000000000000
3.872741804155523 -1.555262141390865 0.072846344469221 98.000000000000000
3.874701482225655 -1.571777806414785 0.072985963720720 100.000000000000000
3.846986519399087 -1.576195652415459 0.072567105966225 96.000000000000000
3.850421689951205 -1.594109615055940 0.072741630030598 105.000000000000000
3.841143891235043 -1.605997638026518 0.072671820404849 102.000000000000000
3.837639452951467 -1.619503986181723 0.072706725217723 100.000000000000000
3.839321495086519 -1.636025631664766 0.072846344469221 98.000000000000000
3.817341886642577 -1.641638206268343 0.072532201153350 105.000000000000000
3.811588243361476 -1.654953214705608 0.072532201153350 102.000000000000000
3.805205596803386 -1.669576427077250 0.072532201153350 102.000000000000000
3.799354504870710 -1.682848901748011 0.072532201153350 110.000000000000000
3.801055787510320 -1.698702359671446 0.072671820404849 107.000000000000000
3.784166155977316 -1.707026568560070 0.072462391527601 107.000000000000000
3.776364532120472 -1.719396748778687 0.072427486714727 115.000000000000000
3.764888616963599 -1.730063327877978 0.072322772276103 110.000000000000000
3.766387828892805 -1.745902610165369 0.072462391527601 110.000000000000000
3.760270545352241 -1.759039120534408 0.072462391527601 107.000000000000000
3.751680578056201 -1.772610250281794 0.072427486714727 118.000000000000000
3.741860065337828 -1.783974107994921 0.072357677088977 121.000000000000000
3.735610036901014 -1.797024768546803 0.072357677088977 121.000000000000000
3.729314491234788 -1.810053532918986 0.072357677088977 121.000000000000000
3.727202130273763 -1.823518176287508 0.072427486714727 118.000000000000000
3.708262012437477 -1.830321949694257 0.072183153024605 124.000000000000000
3.696158917058288 -1.841226210583998 0.072078438585981 128.000000000000000
3.689709319915583 -1.854116995558558 0.072078438585981 127.000000000000000
3.690349321274404 -1.870601624903530 0.072218057837479 129.000000000000000
3.689138637139843 -1.886202940452666 0.072322772276103 130.000000000000000
3.677200233207357 -1.896319328863666 0.072218057837479 134.000000000000000
3.663462145982382 -1.905452650591237 0.072078438585981 134.000000000000000
3.657123294331196 -1.917590652029560 0.072078438585981 136.000000000000000
3.655710628625221 -1.933149086898376 0.072183153024605 138.000000000000000
3.652129355719852 -1.948417480540951 0.072252962650354 140.000000000000000
3.632978738198245 -1.954521999148323 0.072008628960232 143.000000000000000
3.626134049866118 -1.967191553905418 0.072008628960232 142.000000000000000
3.626262619200971 -1.983675892595786 0.072148248211730 144.000000000000000
3.620012832966718 -1.995058324820670 0.072148248211730 145.000000000000000
3.613026725444747 -2.007682373161151 0.072148248211730 146.000000000000000
3.600410778490406 -2.017978185058399 0.072043533773106 147.000000000000000
3.586380938665438 -2.026598527053072 0.071903914521608 151.000000000000000
3.582759974111431 -2.041084699599067 0.071973724147357 150.000000000000000
3.584283687169898 -2.058558009910758 0.072148248211730 152.000000000000000
3.578445009217452 -2.072683504162211 0.072183153024605 152.000000000000000
3.557373151135131 -2.077095590159341 0.071903914521608 151.000000000000000
3.550830218703695 -2.088261139086092 0.071903914521608 152.000000000000000
3.546959504027579 -2.102682586559556 0.071973724147357 152.000000000000000
3.539228962846946 -2.115668719714334 0.071973724147357 150.000000000000000
3.543812036203193 -2.135234133340782 0.072218057837479 150.000000000000000
3.515826674767762 -2.135135515104113 0.071799200082984 149.000000000000000
3.515174511134582 -2.151570812811540 0.071938819334483 146.000000000000000
3.519934991149558 -2.170562887939530 0.072183153024605 147.000000000000000
3.503844757668353 -2.177558879000812 0.072008628960232 145.000000000000000
3.504695948302967 -2.195083575258173 0.072183153024605 142.000000000000000
3.493630301382343 -2.205169150647396 0.072113343398855 140.000000000000000
3.479162437482950 -2.213057730073948 0.071973724147357 141.000000000000000
3.474783266185954 -2.227347072702312 0.072043533773106 140.000000000000000
3.469955396549765 -2.242238437735604 0.072113343398855 138.000000000000000
3.483892183224591 -2.268522265881093 0.072567105966225 131.000000000000000
3.447924191549332 -2.261418703460560 0.071973724147357 123.000000000000000
3.441677648977644 -2.274542969012234 0.072008628960232 121.000000000000000
3.442039189508194 -2.292084599291485 0.072183153024605 122.000000000000000
3.427375151171850 -2.299628948846144 0.072043533773106 122.000000000000000
3.437144576104690 -2.324498101122541 0.072427486714727 115.000000000000000
3.422399484224555 -2.331977751737165 0.072287867463228 113.000000000000000
3.409701174800297 -2.339919547972730 0.072183153024605 110.000000000000000
3.404802222235102 -2.354081845826767 0.072252962650354 110.000000000000000
3.403127608970030 -2.370524370503604 0.072392581901852 107.000000000000000
3.399742759372141 -2.385835139342201 0.072497296340476 100.000000000000000
3.389761095272662 -2.396533521315733 0.072462391527601 105.000000000000000
3.371602220500826 -2.401390842012634 0.072252962650354 105.000000000000000
3.370120132819592 -2.417220222579985 0.072392581901852 102.000000000000000
3.371387082749994 -2.435996323128858 0.072602010779099 102.000000000000000
3.364480090309266 -2.448926622095044 0.072636915591974 96.000000000000000
3.346235382219826 -2.453561294516265 0.072427486714727 98.000000000000000
3.334003556771277 -2.463432696462958 0.072357677088977 100.000000000000000
3.328592542020678 -2.477443429903599 0.072427486714727 98.000000000000000
3.326324225891575 -2.493845456193809 0.072567105966225 96.000000000000000
3.330364948623699 -2.515082248968440 0.072846344469221 94.000000000000000
3.312455754643462 -2.518849886758379 0.072636915591974 90.000000000000000
3.300468093626379 -2.527965264414436 0.072567105966225 90.000000000000000
3.294790285722358 -2.541913620012071 0.072636915591974 94.000000000000000
3.298529271738837 -2.563215144687245 0.072916154094971 96.000000000000000
3.292711298404003 -2.577178564721970 0.072985963720720 92.000000000000000
3.277413627489278 -2.583704573755492 0.072846344469221 92.000000000000000
3.264790169870262 -2.593212047383454 0.072776534843472 94.000000000000000
3.255718280348132 -2.604592493075103 0.072776534843472 96.000000000000000
3.252835223028691 -2.620959794864448 0.072916154094971 86.000000000000000
3.254535704126596 -2.641118871537639 0.073160487785092 84.000000000000000
3.239565346187570 -2.646835907369253 0.073020868533594 84.000000000000000
3.230306428140947 -2.658127975299512 0.073020868533594 87.000000000000000
3.220542204737645 -2.669949786093774 0.073020868533594 87.000000000000000
3.220412670533065 -2.688865105395065 0.073230297410842 84.000000000000000
3.211478365599514 -2.699529594360357 0.073230297410842 84.000000000000000
3.202035683375321 -2.710723299404102 0.073230297410842 84.000000000000000
3.186467133144514 -2.716694491869851 0.073090678159343 87.000000000000000
3.186067737301527 -2.735616834945046 0.073300107036591 84.000000000000000
3.180483985404682 -2.748227514947282 0.073369916662340 82.000000000000000
3.176905513115363 -2.764563565712849 0.073509535913838 84.000000000000000
3.161220387613589 -2.770364329156935 0.073369916662340 82.000000000000000
3.148532150163156 -2.778735754564907 0.073300107036591 87.000000000000000
3.143816223820350 -2.796120554884336 0.073439726288089 84.000000000000000
3.142974155711454 -2.815082460332789 0.073649155165336 87.000000000000000
3.141541630304116 -2.831636673277691 0.073823679229709 93.000000000000000
3.134599594428988 -2.845273472780850 0.073893488855458 90.000000000000000
3.115792762393404 -2.848102898619011 0.073684059978211 88.000000000000000
3.114659611715633 -2.867087591171952 0.073893488855458 90.000000000000000
3.116364829791992 -2.888817864482241 0.074172727358455 90.000000000000000
3.101876676622614 -2.895584744483704 0.074068012919831 84.000000000000000
3.090800279129862 -2.904485622865913 0.074033108106957 90.000000000000000
3.080642902066907 -2.915256834114073 0.074033108106957 88.000000000000000
3.076238555034209 -2.931510661593651 0.074172727358455 92.000000000000000
3.076086653353932 -2.951922932951112 0.074417061048577 102.000000000000000
3.062887827805812 -2.959863280708226 0.074347251422828 84.000000000000000
3.051104200584218 -2.969142103759714 0.074312346609953 93.000000000000000
3.043577850635162 -2.982573580308922 0.074382156235702 90.000000000000000
3.035994873417379 -2.995988657081793 0.074451965861451 92.000000000000000
3.031192158619669 -3.012206200271318 0.074591585112950 86.000000000000000
3.026313147748564 -3.028426650731105 0.074731204364448 90.000000000000000
3.010089295049723 -3.033294336403476 0.074591585112950 94.000000000000000
3.002289973638680 -3.046631679465756 0.074661394738699 90.000000000000000
2.992170471304641 -3.056570880380209 0.074661394738699 90.000000000000000
2.998209229832883 -3.084203036414833 0.075080252493194 92.000000000000000
2.981869669776831 -3.088895138063827 0.074940633241695 96.000000000000000
2.971069247021217 -3.099284987040417 0.074940633241695 90.000000000000000
2.960232622724443 -3.109637072207511 0.074940633241695 96.000000000000000
2.957602201667715 -3.128670274230541 0.075150062118943 92.000000000000000
2.952137610630595 -3.144806988000920 0.075289681370441 92.000000000000000
2.949323402460719 -3.163869047866763 0.075499110247688 92.000000000000000
2.932827792034158 -3.168274939046303 0.075359490996190 92.000000000000000
2.924457158500911 -3.181437528649662 0.075429300621939 94.000000000000000
2.916587850565027 -3.194071256920905 0.075499110247688 96.000000000000000
2.913480111756744 -3.213120890271868 0.075708539124936 92.000000000000000
2.907598706412182 -3.229215511442541 0.075848158376434 90.000000000000000
2.898974650447278 -3.242326701336327 0.075917968002183 92.000000000000000
2.884983856239117 -3.249435521149878 0.075848158376434 98.000000000000000
2.881558166961495 -3.268486159346350 0.076057587253682 94.000000000000000
2.875400178793471 -3.284543164203400 0.076197206505180 98.000000000000000
2.869165138491284 -3.300596930420266 0.076336825756678 94.000000000000000
2.857626425209151 -3.310592077405455 0.076336825756678 90.000000000000000
2.846052892650837 -3.320546885870940 0.076336825756678 96.000000000000000
2.839628851350290 -3.336552613093032 0.076476445008176 96.000000000000000
2.833127684309851 -3.352553877731789 0.076616064259675 90.000000000000000
2.829120103508799 -3.371614047237113 0.076825493136922 92.000000000000000
2.819893787026110 -3.384541644344856 0.076895302762671 92.000000000000000
2.800414429303597 -3.385119540118878 0.076685873885424 92.000000000000000
2.798735237357879 -3.407236041521980 0.076965112388420 92.000000000000000
2.796935641859370 -3.429381915965628 0.077244350891417 86.000000000000000
2.784947825131995 -3.439124150353974 0.077244350891417 90.000000000000000
2.772926074694245 -3.448824480099870 0.077244350891417 90.000000000000000
2.760870537027356 -3.458482787007859 0.077244350891417 90.000000000000000
2.754991890788880 -3.475934694364681 0.077418874955790 82.000000000000000
2.751498228998077 -3.496530554970637 0.077663208645912 93.000000000000000
2.741738567427600 -3.509265337039995 0.077733018271661 88.000000000000000
2.731923496622625 -3.521974549676982 0.077802827897410 90.000000000000000
2.723273180778605 -3.536242299065371 0.077907542336034 99.000000000000000
2.712127367147532 -3.547315339704357 0.077942447148908 92.000000000000000
2.709400515132531 -3.569503357120337 0.078221685651905 94.000000000000000
2.699331010047468 -3.582133238722885 0.078291495277654 90.000000000000000
2.684414856882671 -3.588331401089003 0.078221685651905 92.000000000000000
2.679026497229577 -3.607312238691785 0.078431114529152 94.000000000000000
2.671797240220078 -3.622613717600256 0.078570733780650 96.000000000000000
2.666223559331399 -3.641598772193033 0.078780162657898 98.000000000000000
2.659910872855503 -3.661053235463012 0.078989591535145 98.000000000000000
2.644775732778241 -3.667071991566391 0.078919781909396 98.000000000000000
2.629631012622282 -3.673029732976031 0.078849972283647 96.000000000000000
2.628377584474984 -3.698486553794021 0.079199020412393 96.000000000000000
2.620062200357983 -3.714174934828941 0.079338639663891 94.000000000000000
2.616257173295906 -3.736402467167304 0.079617878166887 98.000000000000000
2.604506027361805 -3.744603229570822 0.079617878166887 94.000000000000000
2.589146877216489 -3.750380587752592 0.079548068541138 94.000000000000000
