# This PCD file was generated using the MATLABÂ® pcwrite function
# from Computer Vision ToolboxÂ®.
# .PCD v.7 - Point Cloud Data file format
VERSION .7
FIELDS x y z intensity
SIZE 8 8 8 8
TYPE F F F F
COUNT 1 1 1 1
WIDTH 644
HEIGHT 1
VIEWPOINT 0 0 0 1 0 0 0
POINTS 644
DATA ascii
nan nan nan nan
3.021048358092746 0.549017535153411 0.596850537537832 113.000000000000000
3.038409023006840 0.541223079550538 0.599903481463857 108.000000000000000
3.051883854206539 0.532638998819659 0.602193189408375 55.000000000000000
nan nan nan nan
3.061336961988073 0.512292114496471 0.603338043380635 3.000000000000000
3.057294198085962 0.500651125016293 0.602193189408375 4.000000000000000
3.066777348433690 0.491218144623796 0.603719661371388 3.000000000000000
3.076231801971474 0.481725044629300 0.605246133334400 3.000000000000000
3.064309940143918 0.468905312641135 0.602574807399128 13.000000000000000
nan nan nan nan
3.077222269247596 0.448918180133671 0.604482897352894 121.000000000000000
3.086545211714647 0.439280434736997 0.606009369315906 124.000000000000000
3.093893648383627 0.429313220894479 0.607154223288166 119.000000000000000
3.087518266434096 0.417997585233014 0.605627751325153 110.000000000000000
5.165781956754159 0.681005343577187 1.012814147458700 48.000000000000000
5.144875175405007 0.659073710261570 1.008234731569663 121.000000000000000
5.137403427591956 0.639897423451980 1.006326641615897 126.000000000000000
5.125854198785388 0.621204266002928 1.003655315680626 125.000000000000000
5.108493311802177 0.601013964770317 0.999839135773095 124.000000000000000
5.089103569239993 0.580729875125796 0.995641337874811 123.000000000000000
5.087196969128259 0.562530496653681 0.994878101893305 126.000000000000000
5.079369064709665 0.543724617668955 0.992970011939539 125.000000000000000
5.071471975573261 0.524980254642890 0.991061921985774 121.000000000000000
5.051784957057075 0.505125675689608 0.986864124087490 125.000000000000000
5.039838116077287 0.486169003331002 0.984192798152218 123.000000000000000
5.031730312272582 0.467665282650688 0.982284708198453 125.000000000000000
5.029421210767078 0.449748690118499 0.981521472216947 125.000000000000000
5.021255444202763 0.430473443263364 0.979613382263181 126.000000000000000
5.007074264115165 0.411656439170252 0.976560438337156 126.000000000000000
4.988840081518506 0.393506351570886 0.972744258429625 129.000000000000000
4.980394769567869 0.375351932511510 0.970836168475860 129.000000000000000
4.979716444608819 0.357824114245049 0.970454550485107 130.000000000000000
4.965265668268819 0.339368494615959 0.967401606559082 130.000000000000000
4.946772575519154 0.321627442293626 0.963585426651551 131.000000000000000
4.940026925192429 0.303875872812290 0.962058954688539 131.000000000000000
4.921457959975423 0.285493139627826 0.958242774781008 131.000000000000000
4.922424533801239 0.268312306112970 0.958242774781008 131.000000000000000
4.919409718741046 0.250928180833539 0.957479538799502 131.000000000000000
4.900645225750088 0.232823042759430 0.953663358891971 130.000000000000000
4.883813310905883 0.214085911768143 0.950228796975193 129.000000000000000
4.882569197356350 0.196957786345880 0.949847178984440 130.000000000000000
4.877309755085796 0.180547643189879 0.948702325012181 129.000000000000000
4.866137356771989 0.163126893194404 0.946412617067662 129.000000000000000
4.850978171235599 0.145668491053559 0.943359673141637 128.000000000000000
4.837719150491711 0.128369990246565 0.940688347206366 131.000000000000000
4.834212305586855 0.111391964708242 0.939925111224860 131.000000000000000
4.826720167281537 0.094363237487982 0.938398639261847 130.000000000000000
4.819140838125459 0.079070376578279 0.936872167298835 133.000000000000000
4.799756579138079 0.061994398246670 0.933055987391304 133.000000000000000
4.782290675822180 0.043403885113447 0.929621425474526 134.000000000000000
4.780449824556585 0.026699346142677 0.929239807483773 135.000000000000000
4.770697648225744 0.009991740399007 0.927331717530008 134.000000000000000
4.776593218545345 -0.006669386629469 0.928476571502267 135.000000000000000
4.739247245651001 -0.021506169430234 0.921225829677958 136.000000000000000
4.731290537616419 -0.037986051124657 0.919699357714946 134.000000000000000
4.731129116912254 -0.054501105711599 0.919699357714946 134.000000000000000
4.723057916031620 -0.070897628176251 0.918172885751934 133.000000000000000
4.718840515311753 -0.088134701227235 0.917409649770427 134.000000000000000
4.708690258520480 -0.104388425065187 0.915501559816662 133.000000000000000
4.694558930225425 -0.120471634639666 0.912830233881390 134.000000000000000
4.690184963909967 -0.136743539718535 0.912066997899884 133.000000000000000
4.691641274481785 -0.153178572059483 0.912448615890637 135.000000000000000
4.685192078701415 -0.169341782165324 0.911303761918378 122.000000000000000
4.651255396467323 -0.183561378222624 0.904816256075575 15.000000000000000
4.642740530279269 -0.199459104630635 0.903289784112563 15.000000000000000
4.647899419896520 -0.215937416762280 0.904434638084822 36.000000000000000
4.676529476123235 -0.233629666859480 0.910158907946119 132.000000000000000
4.661918711640213 -0.250032427006911 0.907487582010847 126.000000000000000
4.649257186575936 -0.265632117519331 0.905197874066328 126.000000000000000
4.636641558807387 -0.279527992678295 0.902908166121810 129.000000000000000
4.631719031996768 -0.295461221924412 0.902144930140304 128.000000000000000
4.626741814248097 -0.311363494526321 0.901381694158798 129.000000000000000
4.627585116851886 -0.327650599193692 0.901763312149551 130.000000000000000
4.606834652184139 -0.342346951401323 0.897947132242020 130.000000000000000
4.593867555992579 -0.357511756868965 0.895657424297501 130.000000000000000
4.584699295656212 -0.373708721448750 0.894130952334489 131.000000000000000
4.579454485521195 -0.389377372760762 0.893367716352983 131.000000000000000
4.578067405240052 -0.405360279821396 0.893367716352983 131.000000000000000
4.559029659745930 -0.419718408212135 0.889933154436205 133.000000000000000
4.541977721070745 -0.433342674453397 0.886880210510180 131.000000000000000
4.536529968348364 -0.448807925207817 0.886116974528674 133.000000000000000
4.534935698236063 -0.464640635670569 0.886116974528674 130.000000000000000
4.533286171363416 -0.480467684633808 0.886116974528674 130.000000000000000
4.508162382465930 -0.493724078840377 0.881537558639637 130.000000000000000
4.494706533612144 -0.508134228085771 0.879247850695119 130.000000000000000
4.492996786367260 -0.523036418178978 0.879247850695119 131.000000000000000
4.491143675679960 -0.538716717253060 0.879247850695119 131.000000000000000
4.489235841824292 -0.554390452233949 0.879247850695119 130.000000000000000
4.467797295424876 -0.567583224537350 0.875431670787588 131.000000000000000
4.458001937940473 -0.582158418977487 0.873905198824575 133.000000000000000
4.452051013174464 -0.597194180158167 0.873141962843069 131.000000000000000
4.446156266524629 -0.611419504565537 0.872378726861563 131.000000000000000
4.443994926660229 -0.626935761252731 0.872378726861563 130.000000000000000
4.426235153122292 -0.640196104633572 0.869325782935538 130.000000000000000
4.416205314366953 -0.654491388203618 0.867799310972526 129.000000000000000
4.413893808042425 -0.669902834148621 0.867799310972526 128.000000000000000
4.411528519814786 -0.685306117538999 0.867799310972526 129.000000000000000
4.409353800689186 -0.699161938483095 0.867799310972526 128.000000000000000
4.389444903857638 -0.711721164915036 0.864364749055748 131.000000000000000
4.379059712098353 -0.726519198274024 0.862838277092736 131.000000000000000
4.372625714860139 -0.741144372735112 0.862075041111229 133.000000000000000
4.366143019481198 -0.755733489915452 0.861311805129723 133.000000000000000
4.367345035271462 -0.771652749870546 0.862075041111229 133.000000000000000
4.347235913493589 -0.783757896241103 0.858640479194452 134.000000000000000
4.332888340093605 -0.796797332362835 0.856350771249933 134.000000000000000
4.335869478727937 -0.813002531459973 0.857495625222192 133.000000000000000
4.323363398671829 -0.826289835661843 0.855587535268427 134.000000000000000
4.328160981377428 -0.842877273326103 0.857114007231439 134.000000000000000
4.298232184277593 -0.852632188125068 0.851771355360896 134.000000000000000
4.291380984039090 -0.866853177059438 0.851008119379390 134.000000000000000
4.282559904799490 -0.880641295826692 0.849863265407131 135.000000000000000
4.277850393880713 -0.893689508877319 0.849481647416377 134.000000000000000
4.284306535946303 -0.910657466421148 0.851389737370143 135.000000000000000
4.255995066047199 -0.920956268065721 0.846428703490353 135.000000000000000
4.254671782274990 -0.936228767207048 0.846810321481106 135.000000000000000
4.241963877950143 -0.948191266214946 0.844902231527340 134.000000000000000
4.248200560410320 -0.965167487000320 0.846810321481106 135.000000000000000
4.235240934240996 -0.977782413469158 0.844902231527340 134.000000000000000
4.224156502008197 -0.990766962873295 0.843375759564328 134.000000000000000
4.184211972712259 -0.997591661011981 0.836125017740019 42.000000000000000
4.180704236317716 -1.012191208786341 0.836125017740019 41.000000000000000
4.177503718151378 -1.025320261938025 0.836125017740019 43.000000000000000
4.192949433625015 -1.044642441966664 0.839941197647550 132.000000000000000
4.160727128480918 -1.052053173426988 0.834216927786254 101.000000000000000
4.155127768702656 -1.066082502386347 0.833835309795501 53.000000000000000
4.162591627339948 -1.084273903913867 0.836125017740019 62.000000000000000
7.296374201384673 -1.927785219124826 1.466939556454876 116.000000000000000
7.281674429476876 -1.952480984517559 1.465413084491864 119.000000000000000
7.248291874816971 -1.970675830583833 1.460070432621321 118.000000000000000
7.233798079404805 -1.993878346646689 1.458543960658309 119.000000000000000
7.230575756239804 -2.020173442829218 1.459307196639815 116.000000000000000
7.219702013107884 -2.044330784573072 1.458543960658309 118.000000000000000
7.204973555083412 -2.067353890407917 1.457017488695296 116.000000000000000
7.186402017258472 -2.089202989241422 1.454727780750778 111.000000000000000
7.180948836443081 -2.114830122274794 1.455109398741531 113.000000000000000
7.156590955357656 -2.134832561542670 1.451674836824753 113.000000000000000
7.154733486508115 -2.161504032629114 1.452819690797012 108.000000000000000
7.141512732479601 -2.184742561484436 1.451674836824753 110.000000000000000
7.122590930851823 -2.206172518169918 1.449385128880234 105.000000000000000
7.101733360392800 -2.226909618788449 1.446713802944963 108.000000000000000
7.093916728990488 -2.251685727297979 1.446713802944963 105.000000000000000
7.089751995276360 -2.277635367493126 1.447477038926469 25.000000000000000
7.078024251072342 -2.301155334522279 1.446713802944963 108.000000000000000
7.055029160378702 -2.320940083316004 1.443660859018938 108.000000000000000
7.039433478791521 -2.343072492975824 1.442134387055926 102.000000000000000
7.031211742840228 -2.367630426611492 1.442134387055926 108.000000000000000
7.019187528112006 -2.390893483626419 1.441371151074420 105.000000000000000
7.007507858785684 -2.412878456124245 1.440607915092913 105.000000000000000
6.991626444920693 -2.434741927746100 1.439081443129901 25.000000000000000
6.975249019619625 -2.457741406081777 1.437554971166888 102.000000000000000
6.966627405498206 -2.482074595541943 1.437554971166888 25.000000000000000
6.961615049582064 -2.507708243878853 1.438318207148395 25.000000000000000
nan nan nan nan
nan nan nan nan
3.921047440947326 -1.459003525087300 0.813227938294834 121.000000000000000
3.928793896551390 -1.477519173834749 0.815899264230106 137.000000000000000
3.905260667747140 -1.484249366213205 0.812083084322575 137.000000000000000
3.900317247030854 -1.497191516363488 0.812083084322575 137.000000000000000
3.884084978633422 -1.506537276780244 0.809793376378056 138.000000000000000
3.871226057463995 -1.517896380929572 0.808266904415044 137.000000000000000
3.865904025479828 -1.531400234101517 0.808266904415044 138.000000000000000
3.868095878664120 -1.547127971770881 0.809793376378056 137.000000000000000
3.864492126207526 -1.561356168521308 0.810174994368809 139.000000000000000
3.846294395998052 -1.569643668091697 0.807503668433538 138.000000000000000
3.837161646089161 -1.581563902101153 0.806740432452031 137.000000000000000
3.831339151136368 -1.595617179531722 0.806740432452031 137.000000000000000
3.829365504035802 -1.610503542984929 0.807503668433538 138.000000000000000
3.829141621541430 -1.626162971350041 0.808648522405797 139.000000000000000
3.807202671919998 -1.632555754869895 0.805213960489019 137.000000000000000
3.801767988652297 -1.645171917549122 0.805213960489019 137.000000000000000
3.799600211559377 -1.660004515381647 0.805977196470525 137.000000000000000
3.793782565983733 -1.673257481921834 0.805977196470525 136.000000000000000
3.773570517492174 -1.680101840422093 0.802924252544501 56.000000000000000
3.779921373259721 -1.699557052854711 0.805595578479772 141.000000000000000
3.747149352021934 -1.700570969789432 0.799871308618476 139.000000000000000
3.745358776866938 -1.713968482364531 0.800634544599982 140.000000000000000
3.744700117745167 -1.729501322400323 0.801779398572241 141.000000000000000
3.742199132521440 -1.744221021625215 0.802542634553748 141.000000000000000
3.727205108539447 -1.753095092934388 0.800634544599982 140.000000000000000
3.715742085541728 -1.763569388573639 0.799489690627723 139.000000000000000
3.709563441987311 -1.776529004674917 0.799489690627723 139.000000000000000
3.710097440302152 -1.793531179191439 0.801016162590735 139.000000000000000
3.700285122297349 -1.804749641129832 0.800252926609229 139.000000000000000
3.688678187767687 -1.815054686595783 0.799108072636970 137.000000000000000
3.685837011916931 -1.829665382312361 0.799871308618476 137.000000000000000
3.675916928060065 -1.840762077577620 0.799108072636970 138.000000000000000
3.667716701359115 -1.852697020351601 0.798726454646216 139.000000000000000
3.665051626256956 -1.866631407496198 0.799489690627723 139.000000000000000
3.653274616409905 -1.876722168804061 0.798344836655464 139.000000000000000
3.639728716140491 -1.885850303335646 0.796818364692451 140.000000000000000
3.636603699177245 -1.900362366864999 0.797581600673957 139.000000000000000
3.638297383861120 -1.918256599407213 0.799489690627723 139.000000000000000
3.635046154429754 -1.932788324835087 0.800252926609229 141.000000000000000
3.618234502185777 -1.939267333002517 0.797963218664710 139.000000000000000
3.611443152402552 -1.951885513707956 0.797963218664710 139.000000000000000
3.602883930414929 -1.963540418281284 0.797581600673957 138.000000000000000
3.601169679165897 -1.978941381775740 0.798726454646216 139.000000000000000
3.595957212127419 -1.992451258323583 0.799108072636970 139.000000000000000
3.578696740198471 -1.999246391864116 0.796818364692451 139.000000000000000
3.575468824629330 -2.013029129041635 0.797581600673957 137.000000000000000
3.568420258671515 -2.025497580292084 0.797581600673957 139.000000000000000
3.567431197217046 -2.043087110567971 0.799108072636970 140.000000000000000
3.561977986447277 -2.056508949322855 0.799489690627723 139.000000000000000
3.544956990366391 -2.062386026926666 0.797199982683204 139.000000000000000
3.537736322571658 -2.074747671300550 0.797199982683204 139.000000000000000
3.527092488692527 -2.085085869865309 0.796436746701698 139.000000000000000
3.531598417865706 -2.104419849548770 0.799108072636970 139.000000000000000
3.524231106033546 -2.116734607718217 0.799108072636970 139.000000000000000
3.505064526880411 -2.121906494383722 0.796436746701698 139.000000000000000
3.496332665062060 -2.132495750821800 0.796055128710945 138.000000000000000
3.497230142952261 -2.149827906806580 0.797963218664710 139.000000000000000
3.494333347791971 -2.165734227174557 0.799108072636970 140.000000000000000
3.488417351553271 -2.178958608134184 0.799489690627723 139.000000000000000
3.472482738998117 -2.185892773588518 0.797581600673957 140.000000000000000
3.464831393741299 -2.198000683168932 0.797581600673957 138.000000000000000
3.473679159940434 -2.220656364923351 0.801397780581488 61.000000000000000
3.484061207938161 -2.244463691681005 0.805595578479772 137.000000000000000
3.471658451174378 -2.252798843711719 0.804450724507513 135.000000000000000
3.453914627129759 -2.258456874063731 0.802161016562994 136.000000000000000
3.439452515573750 -2.266178880650552 0.800634544599982 136.000000000000000
3.438063582357109 -2.282514514121744 0.802161016562994 137.000000000000000
3.436602434061928 -2.298868010779738 0.803687488526007 137.000000000000000
3.428556950228620 -2.310849986439141 0.803687488526007 138.000000000000000
3.417221381213130 -2.320597913567899 0.802924252544501 136.000000000000000
3.409100163939909 -2.332512104341743 0.802924252544501 137.000000000000000
3.400937407857036 -2.344397874191691 0.802924252544501 137.000000000000000
3.397570759781239 -2.359614757587535 0.804069106516760 139.000000000000000
3.393724719556257 -2.375429015084725 0.805213960489019 137.000000000000000
3.375785484481047 -2.380472433665830 0.802924252544501 138.000000000000000
3.364671592025030 -2.389380417875390 0.802161016562994 136.000000000000000
3.362697488974720 -2.405679949292896 0.803687488526007 135.000000000000000
3.363835964322666 -2.424290486698926 0.805977196470525 137.000000000000000
3.358530535389586 -2.438324530800370 0.806740432452031 137.000000000000000
3.343660041077031 -2.445397310773514 0.805213960489019 137.000000000000000
3.331942405093736 -2.454725003127134 0.804450724507513 137.000000000000000
3.329659690109742 -2.471020660947175 0.805977196470525 137.000000000000000
3.325731282252814 -2.486154748589494 0.807122050442785 139.000000000000000
3.318601058152120 -2.498929539282373 0.807503668433538 137.000000000000000
3.303601127848082 -2.505752650771899 0.805977196470525 138.000000000000000
3.297954400374066 -2.519652882382898 0.806740432452031 137.000000000000000
3.289139078207505 -2.531149540990298 0.806740432452031 136.000000000000000
3.292697240618107 -2.552237365371828 0.809793376378056 138.000000000000000
3.286863184157980 -2.566131794508430 0.810556612359562 137.000000000000000
3.273255905837484 -2.573948791309650 0.809411758387303 139.000000000000000
3.262712190866895 -2.584139971344138 0.809030140396550 137.000000000000000
3.253671981459588 -2.595513218805633 0.809030140396550 137.000000000000000
3.252244467008356 -2.613003083306606 0.810938230350315 139.000000000000000
3.247682069469473 -2.628044565794807 0.812083084322575 137.000000000000000
3.235445003612599 -2.636884474580958 0.811319848341069 138.000000000000000
3.226682990009698 -2.647599098366272 0.811319848341069 137.000000000000000
3.220448223465195 -2.661347460242087 0.812083084322575 138.000000000000000
3.222742462765104 -2.683182489906680 0.815136028248599 138.000000000000000
3.216365534983780 -2.696938474640695 0.815899264230106 138.000000000000000
3.201875353931117 -2.701965057713290 0.814372792267093 137.000000000000000
3.189432266131953 -2.710582466865224 0.813609556285587 136.000000000000000
3.187408808015951 -2.728082121061344 0.815517646239353 139.000000000000000
3.182327812728107 -2.743037012707861 0.816662500211612 137.000000000000000
3.181628953182210 -2.761850554434267 0.818952208156130 138.000000000000000
3.163100406251451 -2.765186825644884 0.816662500211612 138.000000000000000
3.149997567092325 -2.774166490667279 0.815899264230106 137.000000000000000
3.154982729576816 -2.798172004490478 0.819715444137637 138.000000000000000
3.149105859020346 -2.810684440515099 0.820478680119143 137.000000000000000
3.148036322957591 -2.829534146982994 0.822768388063661 138.000000000000000
3.131328199359022 -2.836328863714208 0.821241916100649 138.000000000000000
3.121408486873896 -2.847241959038775 0.821241916100649 137.000000000000000
3.115340833518582 -2.859689322454825 0.822005152082155 138.000000000000000
3.111106322709036 -2.875877103249961 0.823531624045167 137.000000000000000
3.115418696743051 -2.900096197590432 0.827347803952698 132.000000000000000
3.092385583704778 -2.898869153875822 0.823913242035921 135.000000000000000
3.080820174605316 -2.908298250857776 0.823531624045167 137.000000000000000
3.079187036952730 -2.927150546024761 0.825821331989686 138.000000000000000
3.076945494972544 -2.946563850743312 0.828111039934204 138.000000000000000
3.077946912018772 -2.968188881915653 0.831163983860229 133.000000000000000
3.054000401668013 -2.964704565029417 0.827347803952698 134.000000000000000
3.040825265904580 -2.972602168846047 0.826584567971192 137.000000000000000
3.039347028661265 -2.990931806994795 0.828874275915711 137.000000000000000
3.034466274578888 -3.007050552678784 0.830400747878723 136.000000000000000
3.026730589236829 -3.020398048620690 0.831163983860229 136.000000000000000
3.013399324138895 -3.028161671906193 0.830400747878723 135.000000000000000
3.002810708653432 -3.038661949924462 0.830400747878723 136.000000000000000
2.997685845868709 -3.054730212369795 0.831927219841735 137.000000000000000
2.994689206072101 -3.074134459718721 0.834216927786254 136.000000000000000
2.986670275553959 -3.087391259823867 0.834980163767760 136.000000000000000
2.973695022980900 -3.094447289532250 0.834216927786254 135.000000000000000
2.962875269402651 -3.104808569840825 0.834216927786254 136.000000000000000
2.957421096492295 -3.120832169117374 0.835743399749266 135.000000000000000
2.951891093865290 -3.136855452819221 0.837269871712279 136.000000000000000
2.948966075760922 -3.155746947430630 0.839559579656797 137.000000000000000
2.932590801653009 -3.160265131356745 0.838033107693785 136.000000000000000
2.921541551353031 -3.170482530172154 0.838033107693785 135.000000000000000
2.913107392156071 -3.183558074796597 0.838796343675291 135.000000000000000
2.910457521482240 -3.201917436383716 0.841086051619810 135.000000000000000
2.904524832697377 -3.217886826994646 0.842612523582822 136.000000000000000
2.890653896370473 -3.225081987851373 0.841849287601316 135.000000000000000
2.881989145927410 -3.238085653261506 0.842612523582822 135.000000000000000
2.881069532637128 -3.259894517491806 0.845665467508847 135.000000000000000
2.869672824764643 -3.269931466540295 0.845665467508847 136.000000000000000
2.865980070917887 -3.288809245536043 0.847955175453365 137.000000000000000
2.851913232538713 -3.295824135442379 0.847191939471859 137.000000000000000
2.840391284524637 -3.305759091115140 0.847191939471859 137.000000000000000
2.836480226501942 -3.324614993554329 0.849481647416377 137.000000000000000
2.832472045827611 -3.343483762154651 0.851771355360896 138.000000000000000
2.828366605405777 -3.362364948302165 0.854061063305415 137.000000000000000
2.814095450054241 -3.369203706496287 0.853297827323908 137.000000000000000
2.804824135185879 -3.382028573330569 0.854061063305415 137.000000000000000
2.797993524312233 -3.397860828138803 0.855587535268427 135.000000000000000
2.801028035694879 -3.425845699880214 0.860166951157464 137.000000000000000
2.791527295974034 -3.438650690126110 0.860930187138970 138.000000000000000
2.779507158136511 -3.448373989395692 0.860930187138970 137.000000000000000
2.766205587377486 -3.454024242025242 0.860166951157464 137.000000000000000
2.761463258483138 -3.472879091361856 0.862456659101983 137.000000000000000
2.759055944121151 -3.494824662880249 0.865509603028007 137.000000000000000
2.751684435203435 -3.510614933843261 0.867036074991020 136.000000000000000
2.734590427206714 -3.514001184190993 0.865509603028007 137.000000000000000
2.722307613939335 -3.523525277638040 0.865509603028007 136.000000000000000
2.718312915931144 -3.546417628129920 0.868562546954032 135.000000000000000
2.713050396308428 -3.565258741974949 0.870852254898550 135.000000000000000
2.703580063107288 -3.577368485133551 0.871615490880057 135.000000000000000
2.691076245606944 -3.586783946153986 0.871615490880057 134.000000000000000
2.679167244966497 -3.595688155215432 0.871615490880057 135.000000000000000
2.677107245365333 -3.619223701557103 0.875050052796835 135.000000000000000
2.665619483463483 -3.630128945252761 0.875431670787588 133.000000000000000
2.663339917854460 -3.653690001488227 0.878866232704365 135.000000000000000
2.644815331153573 -3.655011939783294 0.876958142750600 134.000000000000000
2.641203737845531 -3.676978012242801 0.880011086676625 136.000000000000000
2.628352598226334 -3.686175132399857 0.880011086676625 134.000000000000000
2.629079854987729 -3.714557141688404 0.884590502565662 136.000000000000000
2.611583208734791 -3.717285980619503 0.883064030602649 135.000000000000000
2.600837522187778 -3.729600185813825 0.883827266584155 135.000000000000000
2.596741813097570 -3.751570264344806 0.886880210510180 136.000000000000000
2.583630568805269 -3.760611728979792 0.886880210510180 135.000000000000000
2.579336338949175 -3.782583644972241 0.889933154436205 134.000000000000000
2.574920089400790 -3.804571245400988 0.892986098362230 134.000000000000000
2.561623970104362 -3.813536215105157 0.892986098362230 136.000000000000000
2.550474669542988 -3.825721773388614 0.893749334343736 135.000000000000000
2.545771325632594 -3.847699836431766 0.896802278269761 134.000000000000000
2.540945517339409 -3.869691519617518 0.899855222195785 134.000000000000000
2.532781542835190 -3.886761709332650 0.901763312149551 133.000000000000000
2.517066578208484 -3.892281940406041 0.901000076168045 133.000000000000000
2.505585325526601 -3.904348998919900 0.901763312149551 130.000000000000000
2.498268740061612 -3.923007193377265 0.904053020094069 130.000000000000000
2.492261341582918 -3.945416096597480 0.907105964020094 130.000000000000000
2.482644845517987 -3.960745594872559 0.908632435983106 130.000000000000000
2.470534057338336 -3.970623492753926 0.909014053973859 129.000000000000000
2.455627600519759 -3.977552536905702 0.908632435983106 130.000000000000000
2.447881423087673 -3.996144815469601 0.910922143927625 130.000000000000000
2.442074604137372 -4.018086754490278 0.913975087853650 133.000000000000000
2.434116743343248 -4.036674188457251 0.916264795798168 130.000000000000000
2.420011291402333 -4.045146248711678 0.916264795798168 31.000000000000000
2.411888538191094 -4.063698721976872 0.918554503742687 26.000000000000000
4.027360272532829 -6.839830538777817 1.542881536614741 53.000000000000000
4.024042324235650 -6.891844646480208 1.551277132411309 51.000000000000000
4.148544810139930 -7.162376427249436 1.608901449015026 25.000000000000000
4.099333313399393 -7.131839266554872 1.598979381255446 22.000000000000000
3.661137734181253 -6.421261558374425 1.436791735185383 9.000000000000000
3.998222102812190 -7.069712370348909 1.578753627745532 25.000000000000000
3.952389207893809 -7.045955946556715 1.570358031948964 24.000000000000000
3.902267842735588 -7.010991560716382 1.559672728207877 23.000000000000000
3.858795016183583 -6.990195113010499 1.552040368392815 25.000000000000000
3.807972748023551 -6.955404525617645 1.541355064651729 25.000000000000000
3.763061407464445 -6.930696942624099 1.532959468855161 26.000000000000000
3.723953742568054 -6.916132637926443 1.526853581003112 24.000000000000000
3.676671343470433 -6.885793541334748 1.517313131234284 8.000000000000000
3.631483738181728 -6.858679263903082 1.508535917446963 9.000000000000000
3.584705276056317 -6.827857399777356 1.498995467678136 9.000000000000000
3.539093047157380 -6.798534489277250 1.489836635900062 9.000000000000000
3.497331256940666 -6.775955177182119 1.482204276085000 8.000000000000000
3.459347844018013 -6.760158433228026 1.476098388232951 9.000000000000000
3.417076279090424 -6.735425292194870 1.468084410427136 9.000000000000000
2.241485942336866 -4.456698724940075 0.969691314503601 10.000000000000000
nan nan nan nan
2.197270023283718 -4.445838051663865 0.963967044642304 25.000000000000000
2.191238603336181 -4.472874491970199 0.968164842540588 26.000000000000000
2.180683275039868 -4.488945862850565 0.970072932494354 30.000000000000000
2.166704028011905 -4.500068309367770 0.970836168475860 23.000000000000000
2.160283290458461 -4.527094528434620 0.975033966374144 26.000000000000000
2.162932703578925 -4.573653289880802 0.983429562170712 110.000000000000000
2.151953226835002 -4.591841768837197 0.985719270115231 108.000000000000000
2.140046153368377 -4.608228581472100 0.987627360068996 110.000000000000000
2.127230158445471 -4.622804619446559 0.989153832032008 110.000000000000000
2.117596280005769 -4.644492621228792 0.992206775958033 113.000000000000000
2.106220392006689 -4.662591168417047 0.994496483902552 114.000000000000000
2.097951773052715 -4.687834700927645 0.998312663810082 113.000000000000000
2.083166813276983 -4.698718907799980 0.999075899791589 114.000000000000000
2.068331411046356 -4.709556972439711 0.999839135773095 114.000000000000000
2.061277309215356 -4.738351530605433 1.004418551662132 113.000000000000000
2.052493529046038 -4.763547946570999 1.008234731569663 118.000000000000000
2.042852852450963 -4.784772665511236 1.011287675495687 111.000000000000000
2.030725916460928 -4.802723929187731 1.013577383440206 110.000000000000000
2.016223701193315 -4.815215962721400 1.014722237412465 105.000000000000000
2.006922557386258 -4.840360042506909 1.018538417319996 62.000000000000000
1.998961556507545 -4.869129962834694 1.023117833209033 58.000000000000000
1.986388495777697 -4.886990497063346 1.025407541153552 62.000000000000000
1.970783425122840 -4.897537159370526 1.026170777135058 102.000000000000000
1.958035085204569 -4.915329860318412 1.028460485079576 60.000000000000000
1.946626834730377 -4.936745893003679 1.031513429005601 102.000000000000000
1.935092860285559 -4.958141994948406 1.034566372931626 102.000000000000000
1.924847971869222 -4.983180305703395 1.038382552839157 102.000000000000000
1.910245730079731 -4.997204265471561 1.039909024802169 62.000000000000000
1.898708606960654 -5.014196987286670 1.042198732746688 105.000000000000000
1.888082523721122 -5.039178622168881 1.046014912654219 102.000000000000000
1.878264314786567 -5.072166246813674 1.051357564524762 62.000000000000000
1.865950386838244 -5.093439273568181 1.054410508450787 62.000000000000000
1.855296015618354 -5.114040647210185 1.057463452376811 58.000000000000000
1.838759567229079 -5.124181449750752 1.058226688358318 55.000000000000000
1.827841952911349 -5.153090041902217 1.062806104247355 54.000000000000000
1.815042007410477 -5.174259657261344 1.065859048173379 58.000000000000000
1.803403245242003 -5.199112197431468 1.069675228080910 57.000000000000000
1.787791588879194 -5.212803866687851 1.071201700043922 57.000000000000000
1.773018450262108 -5.226140434777161 1.072728172006935 57.000000000000000
1.762256006510933 -5.254633967135855 1.077307587895972 57.000000000000000
1.750394048857611 -5.283421352188840 1.081887003785009 58.000000000000000
1.739271768998191 -5.311888593757080 1.086466419674046 113.000000000000000
1.720155226017540 -5.309855676783064 1.084939947711034 20.000000000000000
1.696821681679433 -5.300869427898000 1.081887003785009 13.000000000000000
1.685411805290421 -5.329222623001251 1.086466419674046 16.000000000000000
1.672653659230249 -5.353812621797041 1.090282599581577 104.000000000000000
1.661481047587631 -5.384006139657481 1.095243633461367 58.000000000000000
1.646111405064481 -5.401040807716516 1.097533341405886 58.000000000000000
1.630828339969659 -5.422078268901244 1.100586285331910 58.000000000000000
1.618598719995996 -5.450322096580360 1.105165701220947 60.000000000000000
1.607147872964844 -5.478265919930788 1.109745117109985 105.000000000000000
1.593476215619763 -5.502700317847482 1.113561297017515 108.000000000000000
1.576416495536882 -5.515779754492492 1.115087768980528 102.000000000000000
1.562482293547542 -5.540144315404889 1.118903948888059 105.000000000000000
1.549529840253272 -5.572314676581663 1.124246600758602 62.000000000000000
1.545650546578755 -5.634488879725312 1.135695140481195 54.000000000000000
1.531100691124576 -5.658800988225668 1.139511320388726 53.000000000000000
1.513363027380107 -5.671698608334544 1.141037792351738 50.000000000000000
1.478570374132116 -5.619987345989627 1.129589252629145 36.000000000000000
1.455986630576258 -5.613712022195032 1.127299544684627 35.000000000000000
1.435908908946721 -5.608748851466447 1.125391454730861 36.000000000000000
1.412479798200617 -5.598498109925512 1.122338510804837 37.000000000000000
1.384378122845309 -5.573151886001605 1.116232622952787 35.000000000000000
1.358382828097084 -5.551252432062503 1.110889971082244 36.000000000000000
1.338077108445098 -5.552143035249523 1.110126735100738 34.000000000000000
1.315061854158296 -5.541498347976998 1.107073791174713 33.000000000000000
1.292655565734796 -5.528623521277046 1.103639229257935 34.000000000000000
1.269386487958739 -5.515882851742639 1.100204667341157 35.000000000000000
1.242228677197561 -5.489860815564311 1.094098779489108 36.000000000000000
1.219645130636580 -5.478832789930254 1.091045835563083 37.000000000000000
1.196733845197971 -5.465796357457451 1.087611273646305 38.000000000000000
1.173515268479601 -5.450747665177046 1.083795093738774 38.000000000000000
1.150416383411757 -5.435603709842882 1.079978913831244 38.000000000000000
1.126637970212611 -5.416520913270886 1.075399497942207 38.000000000000000
1.106702822971580 -5.410610044958123 1.073491407988441 37.000000000000000
1.084715863167734 -5.399041858593798 1.070438464062416 36.000000000000000
1.064343134249495 -5.395090809775314 1.068911992099404 37.000000000000000
1.041771657795554 -5.379498742807292 1.065095812191873 37.000000000000000
1.020421640734029 -5.369601278132676 1.062424486256601 38.000000000000000
0.999513241775331 -5.361550478297203 1.060134778312083 39.000000000000000
0.979607840723704 -5.353248386306364 1.057845070367565 40.000000000000000
0.960915548561799 -5.356635241980849 1.057845070367565 39.000000000000000
0.936093291142334 -5.325151914272987 1.050975946534009 40.000000000000000
0.914167823683395 -5.309039236368550 1.047159766626478 41.000000000000000
0.894324665483009 -5.304454204326769 1.045633294663466 41.000000000000000
0.873246126692930 -5.292047185586311 1.042580350737441 40.000000000000000
0.851639387953583 -5.275681505766444 1.038764170829910 39.000000000000000
0.830157581332109 -5.259229700844275 1.034947990922379 40.000000000000000
0.808202375571702 -5.238811842365025 1.030368575033342 38.000000000000000
0.787277550468763 -5.224129074901597 1.026934013116564 36.000000000000000
0.767322453508949 -5.215191300443302 1.024644305172046 37.000000000000000
0.748276365652550 -5.212007996348389 1.023499451199786 39.000000000000000
0.726811933321413 -5.191256724072113 1.018920035310749 41.000000000000000
0.706297806340676 -5.176255080855673 1.015485473393972 43.000000000000000
0.686155929428026 -5.163119833374575 1.012432529467947 43.000000000000000
0.667121741230311 -5.157695369569404 1.010906057504934 43.000000000000000
0.647643713459689 -5.148305224033980 1.008616349560416 43.000000000000000
0.627286426950906 -5.131047101482182 1.004800169652885 45.000000000000000
0.606131799586647 -5.105911565203438 0.999457517782342 43.000000000000000
0.587406630646524 -5.100194807854152 0.997931045819329 43.000000000000000
0.571381023729474 -5.102015028742252 0.997931045819329 45.000000000000000
0.551027912038452 -5.080556739125091 0.993351629930292 43.000000000000000
0.530766764377678 -5.066921664514883 0.990298686004268 41.000000000000000
0.511297216814801 -5.051164059567505 0.986864124087490 40.000000000000000
0.492516860795768 -5.041194338736467 0.984574416142971 41.000000000000000
0.474180502932801 -5.035064407739185 0.983047944179959 41.000000000000000
0.457303426892029 -5.034653957038817 0.982666326189206 41.000000000000000
0.437506440845683 -5.010793996524773 0.977705292309415 45.000000000000000
0.417174848352328 -4.988886767059690 0.973125876420379 45.000000000000000
0.399601074345338 -4.988355599701594 0.972744258429625 46.000000000000000
0.381886157960029 -4.985805035734875 0.971981022448119 46.000000000000000
0.364337022237917 -4.985149659888347 0.971599404457366 50.000000000000000
0.346208845890961 -4.951017160208027 0.964730280623810 50.000000000000000
0.328013673940519 -4.938482924685641 0.962058954688539 45.000000000000000
0.309048889347116 -4.939705998508100 0.962058954688539 50.000000000000000
0.291225467825899 -4.930955489947020 0.960150864734774 48.000000000000000
0.275733002626356 -4.931846066962321 0.960150864734774 48.000000000000000
0.257282981777564 -4.909251742723987 0.955571448845736 48.000000000000000
0.238050077872795 -4.902359670863573 0.954044976882724 46.000000000000000
0.220494326469488 -4.893354432344340 0.952136886928959 48.000000000000000
0.203411988568139 -4.894094289187325 0.952136886928959 45.000000000000000
0.185729730321338 -4.879079845258609 0.949083943002934 46.000000000000000
0.170195207830226 -4.873753078964847 0.947939089030675 47.000000000000000
0.152749926690745 -4.860581479200671 0.945267763095403 51.000000000000000
0.134716079969607 -4.853258694239304 0.943741291132391 51.000000000000000
0.117488480726773 -4.841923313458151 0.941451583187872 51.000000000000000
0.100586298480217 -4.842303926135894 0.941451583187872 51.000000000000000
0.083207997849285 -4.815144078613000 0.936108931317329 50.000000000000000
0.067913867273154 -4.803603372957785 0.933819223372810 51.000000000000000
0.051103945788004 -4.799884885194450 0.933055987391304 53.000000000000000
0.032593199386765 -4.788266472994013 0.930766279446786 50.000000000000000
0.015878831677416 -4.788351072733635 0.930766279446786 53.000000000000000
-0.000831617680175 -4.764818275882628 0.926186863557748 54.000000000000000
-0.017449540897736 -4.760859861731501 0.925423627576242 50.000000000000000
-0.034011742268262 -4.752917130272489 0.923897155613230 55.000000000000000
-0.050602311964319 -4.752769450738554 0.923897155613230 53.000000000000000
-0.065479165897873 -4.748660889688660 0.923133919631724 51.000000000000000
-0.081715477708490 -4.728773781238777 0.919317739724193 53.000000000000000
-0.097976844445871 -4.716682746049678 0.917028031779674 50.000000000000000
-0.114345294781101 -4.712386654079053 0.916264795798168 48.000000000000000
-0.131506652692651 -4.708010927586175 0.915501559816662 50.000000000000000
-0.147939876516391 -4.707523200889145 0.915501559816662 50.000000000000000
-0.163686131846382 -4.687357530453712 0.911685379909131 48.000000000000000
-0.179745605676482 -4.678910373102517 0.910158907946119 47.000000000000000
-0.195748105480118 -4.670408309289495 0.908632435983106 50.000000000000000
-0.211515325782924 -4.657929167161144 0.906342728038588 50.000000000000000
-0.227342661661516 -4.665045855066926 0.907869200001600 48.000000000000000
-0.242191632986307 -4.636775716252627 0.902526548131057 50.000000000000000
-0.257720027026856 -4.624140787134431 0.900236840186538 51.000000000000000
-0.273163171816645 -4.611454090551200 0.897947132242020 54.000000000000000
-0.289012622793727 -4.606553674945804 0.897183896260514 51.000000000000000
-0.305350276381074 -4.609434689461641 0.897947132242020 55.000000000000000
-0.318998841032029 -4.584894531262250 0.893367716352983 54.000000000000000
-0.334142555744512 -4.572004892317081 0.891078008408464 55.000000000000000
-0.349799924036411 -4.566895621660567 0.890314772426958 53.000000000000000
-0.365425698038048 -4.561732798314797 0.889551536445452 55.000000000000000
-0.382142830064762 -4.560362805900166 0.889551536445452 57.000000000000000
-0.396692998471711 -4.543354587793538 0.886498592519427 57.000000000000000
-0.411839474548590 -4.534121369465249 0.884972120556415 57.000000000000000
-0.426926332966903 -4.524837863636754 0.883445648593402 54.000000000000000
nan nan nan nan
nan nan nan nan
-0.356687694316853 -3.399363855031002 0.664396921901129 108.000000000000000
-0.368128136394493 -3.394194456142349 0.663633685919623 108.000000000000000
-0.379599827547892 -3.394906132295622 0.664015303910376 110.000000000000000
-0.390548068449040 -3.385759110417595 0.662488831947364 113.000000000000000
-0.401900640708133 -3.380476166258538 0.661725595965857 114.000000000000000
-0.412266774250739 -3.367360452407552 0.659435888021339 107.000000000000000
-0.423527781905404 -3.362005139111049 0.658672652039833 110.000000000000000
-0.435008610721283 -3.358559277888204 0.658291034049080 113.000000000000000
-0.445952599291746 -3.351182056707062 0.657146180076820 107.000000000000000
-0.457913455994334 -3.351550157999688 0.657527798067573 108.000000000000000
-0.468246991801730 -3.340210106116290 0.655619708113808 110.000000000000000
-0.478786293969908 -3.330782148854581 0.654093236150796 110.000000000000000
-0.489551615942766 -3.323263700872722 0.652948382178536 108.000000000000000
-0.502027683462614 -3.327358448297830 0.654093236150796 110.000000000000000
-0.513639273414674 -3.325585773247748 0.654093236150796 110.000000000000000
-0.522486610993262 -3.306319862169540 0.650658674234018 105.000000000000000
-0.532771794206741 -3.296723464179628 0.649132202271005 105.000000000000000
-0.543636312232116 -3.290969650965404 0.648368966289499 105.000000000000000
-0.555447361825514 -3.290987831584478 0.648750584280252 110.000000000000000
-0.566931669181911 -3.289028908640762 0.648750584280252 107.000000000000000
-0.576027384254488 -3.273495080876911 0.646079258344981 102.000000000000000
-0.586062553557931 -3.263735036562312 0.644552786381968 102.000000000000000
-0.596882266588143 -3.261773637976713 0.644552786381968 105.000000000000000
-0.608264344942657 -3.259670258206913 0.644552786381968 105.000000000000000
-0.619639011788089 -3.257527160383705 0.644552786381968 50.000000000000000
-0.628390946230669 -3.241852712482499 0.641881460446697 102.000000000000000
-0.638182003593887 -3.231935212688050 0.640354988483684 48.000000000000000
-0.650233762607438 -3.233537300886442 0.641118224465191 50.000000000000000
-0.660729432534554 -3.227401138022143 0.640354988483684 105.000000000000000
-0.671991139494674 -3.225075099461207 0.640354988483684 47.000000000000000
-0.681615946515721 -3.215027500338912 0.638828516520672 50.000000000000000
-0.691178816049885 -3.204952097652398 0.637302044557660 102.000000000000000
-0.701803019865162 -3.202642444187419 0.637302044557660 50.000000000000000
-0.712978052621259 -3.200173182889174 0.637302044557660 50.000000000000000
-0.725011636764746 -3.201494467327123 0.638065280539166 50.000000000000000
-0.733540717634151 -3.187464734999389 0.635775572594647 105.000000000000000
-0.743429192919009 -3.177108294261270 0.634249100631635 108.000000000000000
-0.752698921062074 -3.166853708241456 0.632722628668623 108.000000000000000
-0.764484068145670 -3.172107846196186 0.634249100631635 108.000000000000000
-0.774618857657562 -3.165605990114654 0.633485864650129 105.000000000000000
-0.783770998780113 -3.155261375459370 0.631959392687116 108.000000000000000
-0.792860382569057 -3.144891531709755 0.630432920724104 105.000000000000000
-0.803833272268167 -3.142104772737842 0.630432920724104 108.000000000000000
-0.815782803792815 -3.143080308995620 0.631196156705610 105.000000000000000
-0.827845322415035 -3.139924765645766 0.631196156705610 105.000000000000000
-0.834743584763744 -3.121842925570522 0.628143212779586 108.000000000000000
-0.842494646030812 -3.111625014608578 0.626616740816573 108.000000000000000
-0.853351111526007 -3.108665202395676 0.626616740816573 108.000000000000000
-0.865249794529021 -3.109450298329326 0.627379976798079 108.000000000000000
-0.877164343512705 -3.110190157966048 0.628143212779586 105.000000000000000
-0.884238264758480 -3.095937674053304 0.625853504835067 113.000000000000000
-0.890127913575305 -3.075859385110209 0.622418942918289 114.000000000000000
-0.903068585632632 -3.080269346809152 0.623945414881302 110.000000000000000
-0.916050863975634 -3.084626352311882 0.625471886844314 110.000000000000000
-0.926247163963351 -3.079529890589542 0.625090268853561 108.000000000000000
-0.934702951798540 -3.068765644865463 0.623563796890548 108.000000000000000
-0.944741524653588 -3.059526452098706 0.622418942918289 110.000000000000000
-0.954829724197984 -3.054336223172720 0.622037324927536 113.000000000000000
-0.964420476762421 -3.051321469527316 0.622037324927536 113.000000000000000
-0.976262100421623 -3.051676223424062 0.622800560909042 111.000000000000000
-0.985020298261185 -3.040606768133250 0.621274088946030 110.000000000000000
-0.993793300175369 -3.031553167677815 0.620129234973771 113.000000000000000
-1.000752087529461 -3.018923297328964 0.618221145020005 116.000000000000000
-1.013780997015145 -3.022857089135186 0.619747616983018 114.000000000000000
-1.025060415164375 -3.023197219272385 0.620510852964524 119.000000000000000
-1.029238050455567 -3.001029942489337 0.616694673056993 110.000000000000000
-1.042280862394592 -3.004838301762033 0.618221145020005 110.000000000000000
-1.050813793763960 -2.995624012098673 0.617076291047746 105.000000000000000
-1.062442886130916 -2.993602653037911 0.617457909038499 110.000000000000000
-1.072886036702721 -2.989875797222041 0.617457909038499 110.000000000000000
-1.081456486802037 -2.982610190316013 0.616694673056993 110.000000000000000
-1.088482867417677 -2.969600394762644 0.614786583103227 108.000000000000000
-1.100206249727414 -2.969464703997253 0.615549819084733 108.000000000000000
-1.112630439872598 -2.971121873045944 0.616694673056993 110.000000000000000
-1.122994812118155 -2.967219966935185 0.616694673056993 111.000000000000000
-1.130540190380219 -2.955947049982096 0.615168201093981 110.000000000000000
-1.137699722732542 -2.946886266906773 0.614023347121721 60.000000000000000
-1.167243136794490 -2.992280604427221 0.624327032872055 18.000000000000000
-1.209354607120070 -3.068554848213742 0.641118224465191 18.000000000000000
-1.249107506418739 -3.137274592398493 0.656382944095314 20.000000000000000
-1.293017479749307 -3.214860563655661 0.673555753679203 15.000000000000000
-1.333789215567254 -3.283082801877894 0.688820473309327 16.000000000000000
-1.378779056230936 -3.360140145679729 0.705993282893216 17.000000000000000
-1.430335672522865 -3.451431844187898 0.726219036403130 11.000000000000000
-1.486197237434712 -3.549388223743491 0.747971261876056 12.000000000000000
-1.541394370325765 -3.645441054684663 0.769341869358229 32.000000000000000
-1.605102985955735 -3.761292073156624 0.794910274738686 59.000000000000000
-1.631429375850370 -3.786317444284293 0.801397780581488 139.000000000000000
-1.640844903408714 -3.773684922275125 0.799871308618476 135.000000000000000
-1.654007525434595 -3.767934314110942 0.799871308618476 137.000000000000000
-1.662377617964016 -3.751368316435838 0.797581600673957 135.000000000000000
-1.673858896194519 -3.741958429662109 0.796818364692451 135.000000000000000
-1.690142200407808 -3.743250040297364 0.798344836655464 135.000000000000000
-1.703198284533840 -3.737327537873360 0.798344836655464 135.000000000000000
-1.721155891870803 -3.742061293174071 0.800634544599982 137.000000000000000
-1.727594834355280 -3.721784475030133 0.797581600673957 135.000000000000000
-1.739558009148849 -3.711872091882336 0.796818364692451 135.000000000000000
-1.750825618806999 -3.702227692158073 0.796055128710945 135.000000000000000
-1.763093021620863 -3.696401389076248 0.796055128710945 137.000000000000000
-1.779390661361083 -3.697300699771028 0.797581600673957 135.000000000000000
-1.791428255605931 -3.689300881281789 0.797199982683204 135.000000000000000
-1.799976842472446 -3.674209870424082 0.795291892729439 135.000000000000000
-1.813890173098458 -3.671741095446389 0.796055128710945 136.000000000000000
-1.828447276790397 -3.668901340958439 0.796818364692451 135.000000000000000
-1.841242992922009 -3.662496516681546 0.796818364692451 135.000000000000000
-1.849576579945877 -3.647292164062345 0.794910274738686 137.000000000000000
-1.860508646284318 -3.637317975917764 0.794147038757180 136.000000000000000
-1.874994203049342 -3.634290906579472 0.794910274738686 136.000000000000000
-1.887668822639403 -3.627723814067168 0.794910274738686 136.000000000000000
-1.903969640700263 -3.628066167505070 0.796436746701698 135.000000000000000
