"X","Y","Z","Intensity"
4.325,6.429,2.076,60.000
4.351,6.421,2.078,60.000
4.367,6.394,2.075,63.000
4.383,6.373,2.073,63.000
4.410,6.362,2.074,58.000
4.434,6.352,2.076,60.000
4.459,6.337,2.076,56.000
4.478,6.319,2.075,63.000
4.494,6.293,2.072,58.000
4.523,6.292,2.076,63.000
4.546,6.275,2.076,58.000
4.572,6.268,2.079,60.000
4.582,6.235,2.073,58.000
4.604,6.220,2.074,60.000
4.628,6.205,2.074,57.000
4.659,6.201,2.078,32.000
4.687,6.192,2.081,56.000
4.701,6.169,2.078,64.000
4.717,6.143,2.075,63.000
4.737,6.127,2.075,58.000
4.756,6.107,2.074,57.000
4.789,6.104,2.079,60.000
4.802,6.076,2.075,63.000
4.819,6.053,2.073,63.000
4.842,6.040,2.074,65.000
4.869,6.032,2.077,63.000
4.893,6.016,2.078,60.000
4.908,5.994,2.076,60.000
4.925,5.970,2.074,60.000
4.946,5.955,2.074,58.000
4.971,5.941,2.076,60.000
4.993,5.928,2.077,60.000
5.013,5.906,2.076,60.000
5.024,5.882,2.073,60.000
5.048,5.866,2.074,60.000
5.072,5.858,2.076,63.000
5.099,5.847,2.079,60.000
5.114,5.821,2.076,63.000
5.128,5.794,2.073,63.000
5.154,5.786,2.076,39.000
5.183,5.778,2.080,60.000
5.204,5.762,2.080,64.000
5.210,5.725,2.074,58.000
5.226,5.703,2.073,60.000
5.246,5.685,2.073,60.000
5.273,5.672,2.075,63.000
5.295,5.657,2.076,63.000
5.305,5.629,2.073,60.000
5.319,5.605,2.071,60.000
5.342,5.594,2.073,67.000
5.367,5.579,2.074,65.000
5.392,5.565,2.076,63.000
5.407,5.539,2.074,63.000
5.414,5.513,2.071,60.000
5.439,5.498,2.072,65.000
5.463,5.484,2.074,65.000
5.489,5.470,2.076,65.000
5.495,5.441,2.072,63.000
5.518,5.424,2.073,65.000
5.538,5.406,2.074,67.000
5.558,5.388,2.074,65.000
5.581,5.375,2.076,63.000
5.596,5.349,2.074,65.000
5.610,5.328,2.073,65.000
5.632,5.311,2.074,57.000
5.653,5.294,2.075,65.000
5.670,5.270,2.074,65.000
5.685,5.251,2.074,67.000
5.697,5.226,2.072,65.000
5.719,5.208,2.073,69.000
5.743,5.193,2.075,69.000
5.760,5.174,2.075,72.000
5.776,5.151,2.074,108.000
5.784,5.124,2.071,118.000
5.803,5.103,2.071,112.000
5.828,5.091,2.074,112.000
5.845,5.069,2.073,72.000
5.862,5.049,2.073,67.000
5.873,5.022,2.071,65.000
5.893,5.005,2.072,63.000
5.920,4.990,2.075,63.000
5.934,4.968,2.074,65.000
5.940,4.937,2.070,63.000
5.964,4.923,2.072,67.000
5.978,4.900,2.071,63.000
6.000,4.885,2.073,65.000
6.021,4.865,2.074,65.000
6.031,4.840,2.072,65.000
6.046,4.818,2.072,67.000
6.071,4.803,2.074,56.000
6.091,4.783,2.075,69.000
6.103,4.762,2.074,63.000
6.114,4.735,2.072,69.000
6.129,4.710,2.071,65.000
6.150,4.692,2.073,67.000
6.169,4.673,2.074,67.000
6.190,4.654,2.075,69.000
6.192,4.626,2.071,72.000
6.206,4.601,2.070,65.000
6.222,4.579,2.070,63.000
6.237,4.555,2.070,67.000
6.248,4.531,2.068,30.000
6.271,4.513,2.070,52.000
6.269,4.482,2.065,39.000
6.281,4.455,2.063,30.000
6.328,4.459,2.074,67.000
6.336,4.430,2.072,67.000
6.349,4.405,2.071,67.000
6.360,4.379,2.069,69.000
6.377,4.361,2.070,65.000
6.396,4.340,2.071,65.000
6.417,4.323,2.073,63.000
6.424,4.295,2.071,67.000
6.434,4.270,2.069,65.000
6.454,4.249,2.071,67.000
6.471,4.228,2.071,57.000
6.497,4.213,2.075,74.000
6.502,4.182,2.072,74.000
6.514,4.158,2.071,74.000
6.529,4.137,2.071,72.000
6.553,4.120,2.074,72.000
6.569,4.102,2.075,69.000
6.571,4.070,2.071,69.000
6.585,4.047,2.071,72.000
6.600,4.022,2.071,69.000
6.620,4.005,2.073,72.000
6.636,3.981,2.074,74.000
6.641,3.954,2.071,72.000
6.654,3.929,2.071,74.000
6.670,3.909,2.072,102.000
6.698,3.892,2.076,111.000
6.703,3.865,2.073,115.000
6.708,3.837,2.071,75.000
6.712,3.810,2.068,65.000
6.736,3.791,2.071,69.000
6.753,3.771,2.073,67.000
6.768,3.749,2.073,72.000
6.775,3.721,2.071,72.000
6.778,3.691,2.068,69.000
6.800,3.674,2.071,72.000
6.820,3.654,2.073,72.000
6.833,3.629,2.073,72.000
6.839,3.601,2.071,69.000
6.853,3.579,2.072,105.000
6.862,3.554,2.071,72.000
6.875,3.532,2.071,72.000
6.897,3.511,2.074,74.000
6.895,3.481,2.070,102.000
6.904,3.454,2.068,74.000
6.917,3.432,2.069,72.000
6.933,3.408,2.070,72.000
6.946,3.386,2.071,74.000
6.951,3.357,2.068,74.000
6.961,3.337,2.068,105.000
6.963,3.306,2.065,75.000
6.992,3.290,2.071,102.000
7.007,3.267,2.072,105.000
7.004,3.238,2.067,102.000
7.019,3.214,2.068,74.000
7.032,3.190,2.069,72.000
7.048,3.168,2.071,102.000
7.058,3.145,2.071,74.000
7.061,3.116,2.068,69.000
7.072,3.090,2.068,69.000
7.087,3.067,2.069,72.000
7.101,3.042,2.070,72.000
6.287,2.667,1.830,115.000
6.265,2.635,1.821,131.000
6.236,2.597,1.810,36.000
6.229,2.570,1.806,43.000
6.263,2.557,1.813,114.000
6.225,2.518,1.799,119.000
6.200,2.481,1.789,115.000
6.184,2.450,1.782,118.000
6.178,2.421,1.778,121.000
6.165,2.392,1.772,121.000
6.137,2.356,1.762,122.000
6.113,2.323,1.752,122.000
6.089,2.289,1.743,121.000
6.077,2.264,1.738,115.000
6.067,2.236,1.733,115.000
6.057,2.207,1.727,121.000
6.031,2.172,1.718,124.000
6.005,2.142,1.708,124.000
5.992,2.114,1.703,121.000
5.976,2.083,1.696,119.000
5.963,2.055,1.690,122.000
5.941,2.026,1.682,115.000
5.929,1.999,1.677,121.000
5.918,1.971,1.671,121.000
5.907,1.944,1.666,122.000
5.892,1.917,1.660,125.000
5.858,1.883,1.649,121.000
5.834,1.854,1.640,121.000
5.832,1.830,1.638,119.000
5.817,1.805,1.632,65.000
5.767,1.766,1.616,24.000
5.767,1.746,1.615,36.000
5.731,1.712,1.603,37.000
5.764,1.701,1.610,67.000
5.785,1.684,1.615,15.000
7.209,2.073,2.010,48.000
7.254,2.057,2.020,63.000
7.260,2.035,2.020,63.000
7.293,2.017,2.028,65.000
7.334,2.001,2.037,39.000
7.397,1.989,2.052,11.000
7.415,1.967,2.056,12.000
7.463,1.952,2.067,19.000
7.494,1.932,2.074,38.000
7.510,1.907,2.076,45.000
7.492,1.875,2.070,38.000
7.490,1.847,2.067,36.000
5.504,1.337,1.518,6.000
5.511,1.318,1.518,33.000
0,0,0,0
5.496,1.273,1.512,131.000
5.462,1.247,1.501,131.000
5.440,1.221,1.494,131.000
5.427,1.198,1.489,130.000
5.441,1.180,1.492,134.000
5.411,1.157,1.483,132.000
5.396,1.133,1.477,129.000
5.381,1.111,1.472,128.000
5.377,1.090,1.470,130.000
5.373,1.072,1.468,128.000
5.362,1.049,1.464,128.000
5.350,1.027,1.460,131.000
5.327,1.004,1.452,134.000
5.302,0.980,1.445,130.000
5.294,0.958,1.442,129.000
5.303,0.942,1.443,134.000
5.263,0.916,1.431,130.000
5.256,0.896,1.429,130.000
5.252,0.875,1.427,130.000
5.251,0.857,1.426,131.000
5.235,0.836,1.420,128.000
5.219,0.814,1.415,128.000
5.206,0.794,1.411,131.000
5.197,0.774,1.408,131.000
5.192,0.755,1.406,131.000
5.176,0.735,1.401,133.000
5.150,0.712,1.393,134.000
5.131,0.692,1.387,133.000
5.126,0.672,1.385,132.000
5.122,0.653,1.384,130.000
5.113,0.633,1.381,130.000
5.107,0.616,1.378,133.000
5.081,0.594,1.371,129.000
5.083,0.577,1.371,128.000
5.073,0.557,1.368,128.000
5.069,0.541,1.366,127.000
5.050,0.521,1.360,130.000
5.033,0.501,1.355,130.000
5.031,0.482,1.354,131.000
5.013,0.464,1.349,132.000
5.007,0.446,1.347,132.000
4.981,0.426,1.340,132.000
4.964,0.406,1.334,132.000
4.961,0.390,1.333,133.000
4.955,0.372,1.331,133.000
4.948,0.353,1.329,131.000
4.932,0.335,1.325,129.000
4.933,0.317,1.325,133.000
4.915,0.299,1.319,130.000
4.910,0.281,1.318,131.000
4.906,0.263,1.316,130.000
4.891,0.247,1.312,130.000
4.878,0.228,1.309,130.000
4.871,0.212,1.307,130.000
4.874,0.194,1.307,133.000
4.850,0.177,1.300,132.000
4.835,0.159,1.296,132.000
4.820,0.144,1.292,133.000
4.813,0.126,1.290,131.000
4.807,0.109,1.288,135.000
4.802,0.092,1.287,132.000
4.775,0.075,1.280,132.000
4.771,0.057,1.279,132.000
4.760,0.042,1.275,132.000
4.754,0.025,1.274,129.000
4.768,0.009,1.278,134.000
4.739,-0.008,1.270,129.000
4.735,-0.025,1.269,133.000
4.727,-0.041,1.267,130.000
4.717,-0.058,1.264,130.000
4.713,-0.074,1.263,128.000
4.701,-0.091,1.260,128.000
4.689,-0.107,1.257,130.000
4.683,-0.123,1.255,133.000
4.673,-0.140,1.253,133.000
4.673,-0.153,1.253,133.000
4.653,-0.170,1.248,73.000
4.627,-0.184,1.241,38.000
4.644,-0.202,1.245,39.000
4.655,-0.218,1.249,39.000
4.654,-0.235,1.249,116.000
4.649,-0.251,1.248,124.000
4.625,-0.267,1.241,130.000
4.624,-0.281,1.241,130.000
4.613,-0.297,1.239,127.000
4.610,-0.313,1.238,128.000
4.588,-0.328,1.232,127.000
4.581,-0.342,1.231,130.000
4.576,-0.358,1.230,128.000
4.571,-0.374,1.229,128.000
4.570,-0.391,1.229,128.000
4.543,-0.404,1.222,127.000
4.534,-0.419,1.220,125.000
4.533,-0.435,1.220,127.000
4.527,-0.450,1.219,125.000
4.524,-0.466,1.219,124.000
4.505,-0.480,1.214,125.000
4.497,-0.494,1.212,124.000
4.490,-0.510,1.211,125.000
4.490,-0.524,1.211,124.000
4.488,-0.541,1.211,124.000
4.469,-0.553,1.207,125.000
4.455,-0.568,1.204,127.000
4.448,-0.582,1.202,128.000
4.446,-0.599,1.202,128.000
4.440,-0.611,1.201,128.000
4.422,-0.625,1.197,131.000
4.417,-0.640,1.196,131.000
4.418,-0.656,1.197,131.000
4.408,-0.671,1.195,130.000
4.402,-0.686,1.194,130.000
4.388,-0.698,1.191,131.000
4.370,-0.711,1.186,130.000
4.370,-0.727,1.187,133.000
4.350,-0.740,1.182,129.000
4.366,-0.758,1.187,131.000
4.322,-0.766,1.176,129.000
4.334,-0.783,1.180,131.000
4.315,-0.795,1.176,126.000
4.321,-0.813,1.178,130.000
4.318,-0.828,1.178,131.000
4.291,-0.837,1.171,127.000
4.286,-0.853,1.171,128.000
4.283,-0.867,1.171,128.000
4.284,-0.883,1.172,130.000
4.281,-0.897,1.172,131.000
4.253,-0.907,1.165,127.000
4.250,-0.922,1.165,127.000
4.243,-0.937,1.164,125.000
4.243,-0.951,1.165,127.000
4.238,-0.966,1.165,128.000
4.220,-0.977,1.161,124.000
4.211,-0.990,1.159,118.000
4.170,-0.996,1.149,36.000
4.175,-1.013,1.151,39.000
4.176,-1.027,1.152,46.000
4.165,-1.040,1.150,105.000
4.129,-1.047,1.141,57.000
4.146,-1.068,1.147,51.000
4.165,-1.087,1.153,60.000
7.285,-1.929,2.019,115.000
7.244,-1.947,2.010,122.000
7.226,-1.969,2.007,115.000
7.216,-1.993,2.006,118.000
7.212,-2.019,2.007,118.000
7.202,-2.041,2.006,115.000
7.180,-2.063,2.002,112.000
7.162,-2.085,1.999,118.000
7.154,-2.111,1.999,112.000
7.151,-2.136,2.000,118.000
7.143,-2.162,2.000,118.000
7.117,-2.180,1.994,112.000
7.098,-2.203,1.991,115.000
7.091,-2.226,1.991,112.000
7.086,-2.253,1.992,112.000
7.071,-2.274,1.990,112.000
7.056,-2.297,1.988,115.000
7.040,-2.319,1.986,118.000
7.028,-2.343,1.985,118.000
7.020,-2.367,1.985,118.000
7.018,-2.393,1.987,119.000
6.989,-2.411,1.981,118.000
6.967,-2.432,1.977,119.000
6.963,-2.455,1.978,119.000
6.957,-2.480,1.979,118.000
6.945,-2.506,1.978,72.000
3.938,-1.437,1.123,28.000
3.922,-1.446,1.120,105.000
3.910,-1.457,1.118,74.000
3.931,-1.480,1.125,135.000
3.898,-1.484,1.118,135.000
3.879,-1.491,1.113,135.000
3.871,-1.505,1.113,133.000
3.868,-1.518,1.113,134.000
3.861,-1.532,1.113,132.000
3.861,-1.547,1.114,134.000
3.843,-1.556,1.111,133.000
3.834,-1.567,1.110,133.000
3.835,-1.584,1.112,133.000
3.827,-1.595,1.111,132.000
3.828,-1.611,1.113,133.000
3.812,-1.620,1.110,132.000
3.800,-1.632,1.108,135.000
3.796,-1.643,1.108,134.000
3.795,-1.659,1.110,133.000
3.784,-1.670,1.108,126.000
3.751,-1.672,1.100,106.000
3.747,-1.686,1.101,136.000
3.745,-1.701,1.102,139.000
3.738,-1.715,1.102,139.000
3.739,-1.731,1.104,139.000
3.721,-1.738,1.100,140.000
3.708,-1.747,1.098,140.000
3.708,-1.762,1.100,139.000
3.712,-1.781,1.103,138.000
3.702,-1.791,1.102,139.000
3.685,-1.800,1.099,138.000
3.676,-1.810,1.098,138.000
3.669,-1.824,1.098,139.000
3.663,-1.835,1.098,139.000
3.662,-1.851,1.099,140.000
3.644,-1.857,1.096,139.000
3.637,-1.871,1.096,139.000
3.634,-1.885,1.097,139.000
3.632,-1.900,1.098,140.000
3.631,-1.916,1.100,138.000
3.620,-1.927,1.099,141.000
3.602,-1.933,1.095,140.000
3.600,-1.948,1.097,141.000
3.599,-1.963,1.098,140.000
3.595,-1.978,1.099,140.000
3.578,-1.984,1.096,140.000
3.563,-1.992,1.094,141.000
3.562,-2.009,1.096,141.000
3.559,-2.023,1.097,139.000
3.558,-2.039,1.099,139.000
3.543,-2.047,1.096,140.000
3.534,-2.058,1.096,141.000
3.527,-2.071,1.096,139.000
3.526,-2.086,1.098,139.000
3.522,-2.101,1.099,139.000
3.507,-2.108,1.096,140.000
3.494,-2.118,1.095,139.000
3.489,-2.130,1.095,137.000
3.486,-2.146,1.097,139.000
3.482,-2.160,1.098,138.000
3.469,-2.169,1.096,140.000
3.459,-2.179,1.095,140.000
3.459,-2.196,1.098,138.000
3.454,-2.208,1.098,57.000
3.478,-2.242,1.109,133.000
3.466,-2.251,1.107,135.000
3.448,-2.256,1.104,135.000
3.441,-2.268,1.104,134.000
3.439,-2.285,1.106,134.000
3.434,-2.298,1.107,134.000
3.417,-2.304,1.104,136.000
3.411,-2.318,1.105,136.000
3.402,-2.329,1.105,133.000
3.401,-2.346,1.107,135.000
3.396,-2.361,1.108,135.000
3.382,-2.368,1.106,135.000
3.376,-2.383,1.107,135.000
3.365,-2.391,1.106,135.000
3.366,-2.411,1.109,135.000
3.358,-2.422,1.109,134.000
3.346,-2.432,1.108,134.000
3.338,-2.443,1.108,134.000
3.330,-2.456,1.109,133.000
3.325,-2.469,1.110,133.000
3.319,-2.484,1.111,132.000
3.308,-2.492,1.110,133.000
3.300,-2.504,1.110,133.000
3.293,-2.518,1.111,132.000
3.287,-2.532,1.112,132.000
3.282,-2.546,1.113,133.000
3.271,-2.556,1.112,134.000
3.262,-2.565,1.112,132.000
3.256,-2.579,1.113,133.000
3.253,-2.595,1.115,132.000
3.248,-2.610,1.117,134.000
3.232,-2.618,1.114,134.000
3.222,-2.628,1.114,131.000
3.220,-2.645,1.117,134.000
3.213,-2.659,1.118,134.000
3.207,-2.670,1.118,132.000
3.193,-2.678,1.117,134.000
3.184,-2.689,1.117,134.000
3.183,-2.708,1.120,134.000
3.174,-2.718,1.120,134.000
3.170,-2.735,1.122,134.000
3.160,-2.745,1.122,135.000
3.146,-2.753,1.120,132.000
3.147,-2.772,1.124,136.000
3.140,-2.786,1.125,135.000
3.136,-2.802,1.127,135.000
3.121,-2.808,1.125,135.000
3.108,-2.816,1.124,135.000
3.105,-2.833,1.126,133.000
3.102,-2.851,1.129,134.000
3.098,-2.867,1.131,135.000
3.081,-2.871,1.128,131.000
3.069,-2.881,1.128,136.000
3.068,-2.899,1.131,136.000
3.067,-2.917,1.134,136.000
3.063,-2.935,1.137,137.000
3.043,-2.936,1.133,129.000
3.051,-2.964,1.140,137.000
3.028,-2.963,1.135,135.000
3.027,-2.981,1.138,135.000
3.027,-3.003,1.142,135.000
3.011,-3.007,1.140,135.000
2.996,-3.014,1.139,133.000
2.996,-3.034,1.142,134.000
2.993,-3.053,1.146,135.000
2.985,-3.066,1.147,135.000
2.973,-3.075,1.146,132.000
2.961,-3.084,1.146,135.000
2.959,-3.104,1.149,132.000
2.957,-3.122,1.152,133.000
2.949,-3.136,1.153,133.000
2.937,-3.143,1.153,134.000
2.925,-3.153,1.152,132.000
2.923,-3.172,1.156,134.000
2.919,-3.190,1.158,132.000
2.910,-3.203,1.160,131.000
2.898,-3.213,1.160,133.000
2.888,-3.222,1.160,132.000
2.885,-3.241,1.163,131.000
2.882,-3.262,1.166,128.000
2.878,-3.281,1.169,133.000
2.856,-3.279,1.165,130.000
2.844,-3.289,1.165,130.000
2.835,-3.302,1.166,129.000
2.842,-3.335,1.174,131.000
2.824,-3.335,1.171,129.000
2.817,-3.351,1.173,131.000
2.812,-3.367,1.176,133.000
2.794,-3.370,1.173,131.000
2.788,-3.388,1.176,129.000
2.791,-3.417,1.182,134.000
2.769,-3.411,1.177,131.000
2.764,-3.430,1.180,133.000
2.756,-3.443,1.182,129.000
2.759,-3.473,1.188,134.000
2.744,-3.478,1.187,130.000
2.727,-3.483,1.185,131.000
2.715,-3.491,1.185,130.000
2.725,-3.529,1.195,134.000
2.710,-3.536,1.194,132.000
2.704,-3.555,1.197,133.000
2.692,-3.564,1.197,132.000
2.680,-3.573,1.197,133.000
2.676,-3.595,1.201,132.000
2.667,-3.609,1.202,129.000
2.666,-3.634,1.208,127.000
2.652,-3.642,1.207,128.000
2.641,-3.652,1.208,127.000
2.632,-3.668,1.210,127.000
2.627,-3.686,1.213,125.000
2.622,-3.709,1.217,127.000
2.608,-3.716,1.216,128.000
2.597,-3.728,1.217,130.000
2.590,-3.745,1.220,127.000
2.586,-3.769,1.225,131.000
2.578,-3.784,1.227,130.000
2.560,-3.787,1.225,130.000
2.555,-3.806,1.228,133.000
2.538,-3.810,1.227,129.000
2.540,-3.842,1.234,131.000
2.535,-3.866,1.239,133.000
2.511,-3.859,1.234,128.000
2.505,-3.879,1.237,131.000
2.504,-3.905,1.243,133.000
2.491,-3.915,1.243,132.000
2.484,-3.933,1.246,132.000
2.470,-3.942,1.246,131.000
2.454,-3.949,1.246,128.000
2.454,-3.979,1.253,130.000
2.450,-4.002,1.257,127.000
2.442,-4.021,1.260,127.000
2.428,-4.029,1.260,122.000
2.418,-4.046,1.263,39.000
2.408,-4.061,1.265,21.000
3.824,-6.503,2.021,40.000
3.799,-6.509,2.019,36.000
3.768,-6.511,2.016,36.000
3.748,-6.523,2.016,38.000
3.723,-6.535,2.015,36.000
3.707,-6.557,2.018,36.000
3.682,-6.569,2.018,38.000
3.656,-6.574,2.016,38.000
3.631,-6.584,2.015,36.000
3.610,-6.600,2.016,37.000
3.590,-6.620,2.018,37.000
3.570,-6.635,2.019,37.000
3.539,-6.634,2.015,36.000
3.518,-6.649,2.016,37.000
3.492,-6.659,2.015,36.000
3.474,-6.679,2.017,36.000
3.453,-6.696,2.019,56.000
3.408,-6.668,2.006,24.000
3.410,-6.731,2.022,34.000
2.237,-4.452,1.335,15.000
2.219,-4.454,1.333,53.000
2.198,-4.450,1.330,28.000
2.178,-4.449,1.327,32.000
2.168,-4.467,1.330,30.000
2.155,-4.481,1.332,24.000
2.167,-4.546,1.349,40.000
2.158,-4.570,1.354,75.000
2.149,-4.589,1.358,108.000
2.132,-4.597,1.358,118.000
2.125,-4.622,1.363,118.000
2.112,-4.638,1.366,106.000
2.107,-4.668,1.372,109.000
2.090,-4.674,1.372,106.000
2.078,-4.687,1.374,103.000
2.065,-4.705,1.377,75.000
2.066,-4.749,1.388,115.000
2.046,-4.749,1.386,112.000
2.031,-4.760,1.387,115.000
2.018,-4.779,1.390,112.000
2.008,-4.799,1.394,118.000
1.998,-4.824,1.399,115.000
1.990,-4.853,1.405,112.000
1.979,-4.874,1.410,112.000
1.963,-4.885,1.411,115.000
1.954,-4.913,1.417,109.000
1.944,-4.930,1.420,112.000
1.933,-4.957,1.426,106.000
1.915,-4.964,1.426,75.000
1.901,-4.981,1.429,106.000
1.891,-5.004,1.433,109.000
1.881,-5.033,1.440,112.000
1.869,-5.053,1.444,118.000
1.853,-5.067,1.446,112.000
1.844,-5.087,1.450,112.000
1.833,-5.116,1.456,112.000
1.824,-5.144,1.462,118.000
1.813,-5.172,1.469,112.000
1.796,-5.182,1.470,112.000
1.780,-5.198,1.472,106.000
1.770,-5.226,1.478,75.000
1.761,-5.259,1.486,108.000
1.744,-5.271,1.488,106.000
1.727,-5.283,1.489,115.000
1.711,-5.290,1.490,27.000
1.695,-5.303,1.492,24.000
1.690,-5.354,1.504,38.000
1.670,-5.356,1.503,110.000
1.657,-5.380,1.508,118.000
1.638,-5.386,1.508,124.000
1.629,-5.419,1.516,122.000
1.616,-5.447,1.522,121.000
1.603,-5.473,1.528,119.000
1.586,-5.486,1.530,119.000
1.569,-5.497,1.532,118.000
1.559,-5.538,1.542,124.000
1.545,-5.558,1.546,119.000
1.542,-5.625,1.563,118.000
1.526,-5.639,1.565,119.000
1.509,-5.658,1.569,112.000
1.472,-5.595,1.550,55.000
1.455,-5.612,1.553,64.000
1.427,-5.581,1.544,52.000
1.401,-5.564,1.537,51.000
1.380,-5.559,1.535,57.000
1.355,-5.540,1.528,52.000
1.333,-5.535,1.525,50.000
1.308,-5.521,1.520,50.000
1.285,-5.503,1.514,57.000
1.257,-5.470,1.504,55.000
1.233,-5.455,1.499,56.000
1.212,-5.450,1.496,52.000
1.190,-5.439,1.492,52.000
1.169,-5.434,1.489,57.000
1.145,-5.407,1.481,51.000
1.126,-5.415,1.482,57.000
1.104,-5.402,1.477,51.000
1.081,-5.393,1.474,51.000
1.059,-5.373,1.468,51.000
1.037,-5.366,1.464,57.000
1.015,-5.343,1.457,56.000
0.994,-5.339,1.455,57.000
0.975,-5.327,1.451,56.000
0.951,-5.307,1.445,56.000
0.927,-5.286,1.438,51.000
0.909,-5.291,1.439,57.000
0.887,-5.271,1.432,49.000
0.867,-5.269,1.431,48.000
0.846,-5.243,1.423,50.000
0.825,-5.225,1.417,48.000
0.803,-5.218,1.415,51.000
0.783,-5.215,1.413,54.000
0.763,-5.195,1.407,54.000
0.740,-5.159,1.397,54.000
0.720,-5.152,1.394,55.000
0.701,-5.145,1.391,54.000
0.682,-5.136,1.388,53.000
0.662,-5.127,1.385,51.000
0.645,-5.131,1.386,57.000
0.622,-5.105,1.378,52.000
0.606,-5.101,1.376,50.000
0.586,-5.092,1.373,47.000
0.567,-5.090,1.372,50.000
0.545,-5.061,1.364,51.000
0.529,-5.051,1.361,51.000
0.509,-5.040,1.357,54.000
0.491,-5.038,1.356,54.000
0.472,-5.030,1.354,57.000
0.452,-4.993,1.343,55.000
0.433,-4.979,1.339,56.000
0.415,-4.969,1.336,57.000
0.397,-4.970,1.336,56.000
0.379,-4.958,1.332,52.000
0.361,-4.957,1.332,57.000
0.343,-4.934,1.325,52.000
0.325,-4.935,1.325,51.000
0.308,-4.936,1.325,54.000
0.290,-4.929,1.323,54.000
0.272,-4.909,1.317,51.000
0.254,-4.895,1.313,51.000
0.237,-4.890,1.312,54.000
0.220,-4.890,1.312,54.000
0.203,-4.883,1.310,54.000
0.184,-4.855,1.302,55.000
0.168,-4.833,1.296,55.000
0.150,-4.829,1.295,55.000
0.133,-4.826,1.294,56.000
0.115,-4.822,1.293,55.000
0.099,-4.798,1.286,53.000
0.081,-4.783,1.282,52.000
0.066,-4.798,1.286,60.000
0.048,-4.771,1.279,54.000
0.032,-4.772,1.279,52.000
0.016,-4.772,1.279,60.000
-0.001,-4.752,1.273,52.000
-0.018,-4.745,1.271,54.000
-0.034,-4.745,1.271,52.000
-0.050,-4.735,1.269,55.000
-0.067,-4.723,1.266,57.000
-0.084,-4.707,1.261,56.000
-0.099,-4.703,1.260,57.000
-0.116,-4.703,1.260,57.000
-0.131,-4.695,1.258,58.000
-0.147,-4.675,1.253,56.000
-0.163,-4.659,1.249,58.000
-0.179,-4.650,1.247,56.000
-0.194,-4.650,1.247,55.000
-0.211,-4.637,1.244,56.000
-0.225,-4.621,1.240,55.000
-0.241,-4.603,1.235,53.000
-0.257,-4.600,1.235,55.000
-0.273,-4.590,1.232,54.000
-0.288,-4.585,1.231,54.000
-0.305,-4.574,1.228,55.000
-0.319,-4.556,1.224,53.000
-0.335,-4.555,1.224,53.000
-0.350,-4.550,1.223,54.000
-0.366,-4.550,1.223,55.000
-0.381,-4.532,1.219,54.000
-0.396,-4.521,1.216,56.000
-0.411,-4.519,1.216,56.000
-0.427,-4.520,1.216,54.000
0,0,0,0
0,0,0,0
-0.357,-3.407,0.918,131.000
-0.367,-3.394,0.915,133.000
-0.378,-3.377,0.911,129.000
-0.392,-3.397,0.916,134.000
-0.400,-3.363,0.907,129.000
-0.411,-3.356,0.906,130.000
-0.423,-3.358,0.907,131.000
-0.435,-3.351,0.905,130.000
-0.447,-3.351,0.906,130.000
-0.457,-3.338,0.903,128.000
-0.467,-3.329,0.901,128.000
-0.479,-3.323,0.900,128.000
-0.490,-3.326,0.901,131.000
-0.501,-3.320,0.900,132.000
-0.511,-3.303,0.896,133.000
-0.522,-3.293,0.893,133.000
-0.533,-3.292,0.893,133.000
-0.545,-3.295,0.895,135.000
-0.556,-3.294,0.895,134.000
-0.565,-3.272,0.890,135.000
-0.574,-3.257,0.886,133.000
-0.586,-3.259,0.887,133.000
-0.596,-3.259,0.888,134.000
-0.608,-3.253,0.887,134.000
-0.616,-3.240,0.884,136.000
-0.625,-3.226,0.881,135.000
-0.637,-3.222,0.880,132.000
-0.648,-3.220,0.880,133.000
-0.661,-3.223,0.882,134.000
-0.669,-3.205,0.877,134.000
-0.676,-3.186,0.873,132.000
-0.689,-3.193,0.875,135.000
-0.700,-3.191,0.875,134.000
-0.712,-3.190,0.876,133.000
-0.718,-3.167,0.870,134.000
-0.728,-3.159,0.869,133.000
-0.739,-3.160,0.870,133.000
-0.751,-3.159,0.870,134.000
-0.761,-3.151,0.869,133.000
-0.769,-3.137,0.865,131.000
-0.779,-3.131,0.864,133.000
-0.788,-3.122,0.863,129.000
-0.807,-3.150,0.871,136.000
-0.813,-3.126,0.865,132.000
-0.820,-3.112,0.862,132.000
-0.829,-3.102,0.860,132.000
-0.842,-3.106,0.862,132.000
-0.854,-3.105,0.863,129.000
-0.867,-3.114,0.866,133.000
-0.872,-3.088,0.860,129.000
-0.883,-3.085,0.860,133.000
-0.890,-3.071,0.857,129.000
-0.907,-3.086,0.862,133.000
-0.913,-3.068,0.858,129.000
-0.924,-3.067,0.858,131.000
-0.931,-3.051,0.855,130.000
-0.942,-3.051,0.856,130.000
-0.957,-3.059,0.859,133.000
-0.964,-3.049,0.857,129.000
-0.972,-3.036,0.854,130.000
-0.981,-3.031,0.854,133.000
-0.992,-3.025,0.853,131.000
-1.003,-3.026,0.854,131.000
-1.015,-3.026,0.855,131.000
-1.020,-3.006,0.850,130.000
-1.031,-3.004,0.851,131.000
-1.040,-2.997,0.850,130.000
-1.054,-3.000,0.852,131.000
-1.064,-2.997,0.852,131.000
-1.069,-2.978,0.848,132.000
-1.077,-2.971,0.847,133.000
-1.088,-2.967,0.847,132.000
-1.101,-2.971,0.849,133.000
-1.111,-2.967,0.849,132.000
-1.117,-2.950,0.845,134.000
-1.125,-2.941,0.844,132.000
-1.137,-2.941,0.845,129.000
-1.175,-3.009,0.865,28.000
-1.215,-3.080,0.887,30.000
-1.248,-3.132,0.903,29.000
-1.286,-3.195,0.923,27.000
-1.338,-3.289,0.951,30.000
-1.381,-3.363,0.974,28.000
-1.433,-3.455,1.002,28.000
-1.480,-3.534,1.026,27.000
-1.541,-3.642,1.060,40.000
-1.610,-3.770,1.098,73.000
-1.631,-3.782,1.104,133.000
-1.641,-3.772,1.102,135.000
-1.652,-3.760,1.100,137.000
-1.661,-3.746,1.098,138.000
-1.674,-3.738,1.097,137.000
-1.688,-3.738,1.099,138.000
-1.701,-3.732,1.099,136.000
-1.713,-3.722,1.098,138.000
-1.723,-3.709,1.096,138.000
-1.734,-3.700,1.095,136.000
-1.754,-3.709,1.099,137.000
-1.767,-3.701,1.099,139.000
-1.771,-3.678,1.094,138.000
-1.786,-3.675,1.095,138.000
-1.799,-3.669,1.095,139.000
-1.814,-3.670,1.097,138.000
-1.829,-3.665,1.097,137.000
-1.833,-3.647,1.094,138.000
-1.843,-3.633,1.092,139.000
-1.859,-3.634,1.094,138.000
-1.874,-3.631,1.095,138.000
-1.888,-3.628,1.096,139.000
-1.896,-3.611,1.093,139.000
-1.908,-3.606,1.093,140.000
-1.920,-3.598,1.093,139.000
-1.935,-3.594,1.094,138.000
-1.950,-3.591,1.095,138.000
-1.955,-3.572,1.091,140.000
-1.965,-3.560,1.090,138.000
-1.981,-3.562,1.092,140.000
-1.996,-3.560,1.094,138.000
-2.009,-3.553,1.094,139.000
-2.020,-3.543,1.093,138.000
-2.026,-3.526,1.090,139.000
-2.041,-3.524,1.091,137.000
-2.059,-3.524,1.094,139.000
-2.072,-3.517,1.094,139.000
-2.082,-3.507,1.093,139.000
-2.091,-3.494,1.091,140.000
-2.104,-3.491,1.092,140.000
-2.120,-3.488,1.094,138.000
-2.129,-3.478,1.093,139.000
-2.137,-3.462,1.090,137.000
-2.148,-3.453,1.090,138.000
-2.168,-3.456,1.093,140.000
-2.180,-3.451,1.094,138.000
-2.193,-3.443,1.094,138.000
-2.200,-3.429,1.092,139.000
-2.210,-3.418,1.091,139.000
-2.224,-3.416,1.092,140.000
-2.239,-3.413,1.094,139.000
-2.257,-3.413,1.096,140.000
-2.262,-3.394,1.093,139.000
-2.271,-3.382,1.092,139.000
-2.290,-3.384,1.095,139.000
-2.303,-3.380,1.096,138.000
-2.317,-3.374,1.097,138.000
-2.322,-3.357,1.094,139.000
-2.337,-3.354,1.095,140.000
-2.350,-3.347,1.096,139.000
-2.364,-3.342,1.097,139.000
-2.378,-3.337,1.098,139.000
-2.385,-3.322,1.096,139.000
-2.394,-3.311,1.095,139.000
-2.412,-3.312,1.098,139.000
-2.429,-3.310,1.100,138.000
-2.443,-3.304,1.101,138.000
-2.451,-3.293,1.100,138.000
-2.458,-3.278,1.098,138.000
-2.475,-3.277,1.100,137.000
-2.491,-3.273,1.102,138.000
-2.504,-3.268,1.103,138.000
-2.510,-3.251,1.100,137.000
-2.522,-3.244,1.101,138.000
-2.534,-3.237,1.102,137.000
-2.547,-3.229,1.102,136.000
-2.567,-3.231,1.106,137.000
-2.572,-3.215,1.103,135.000
-2.582,-3.204,1.103,137.000
-2.597,-3.200,1.104,136.000
-2.614,-3.198,1.107,137.000
-2.626,-3.193,1.108,137.000
-2.625,-3.169,1.103,131.000
-2.634,-3.154,1.101,124.000
0,0,0,0
0,0,0,0
-4.829,-5.662,1.994,1.000
-4.856,-5.656,1.998,1.000
-4.868,-5.628,1.994,1.000
-4.889,-5.616,1.995,1.000
-4.908,-5.596,1.994,0.000
-4.931,-5.583,1.996,1.000
-4.946,-5.560,1.994,1.000
-4.962,-5.543,1.993,1.000
-4.969,-5.511,1.988,0.000
-5.007,-5.513,1.995,0.000
-5.037,-5.504,1.999,0.000
-5.034,-5.465,1.991,0.000
-5.056,-5.450,1.992,1.000
-5.077,-5.438,1.993,0.000
-5.104,-5.428,1.997,1.000
-5.115,-5.402,1.993,1.000
-5.138,-5.388,1.995,1.000
-5.144,-5.356,1.990,0.000
-5.717,-5.909,2.203,0.000
0,0,0,0
-5.924,-6.041,2.267,0.000
-5.981,-6.056,2.281,0.000
0,0,0,0
0,0,0,0
0,0,0,0
0,0,0,0
0,0,0,0
0,0,0,0
-5.404,-5.211,2.012,0.000
-5.379,-5.153,1.996,0.000
-5.337,-5.075,1.973,0.000
-5.255,-4.964,1.937,0.000
-5.234,-4.908,1.923,1.000
-5.258,-4.899,1.926,3.000
-5.275,-4.880,1.926,3.000
-5.307,-4.877,1.931,1.000
-5.321,-4.856,1.930,1.000
-5.340,-4.838,1.931,1.000
0,0,0,0
0,0,0,0
0,0,0,0
0,0,0,0
0,0,0,0
0,0,0,0
0,0,0,0
0,0,0,0
0,0,0,0
0,0,0,0
-4.663,-3.910,1.631,0.000
-4.630,-3.856,1.615,0.000
-4.595,-3.799,1.597,0.000
-4.558,-3.744,1.580,0.000
-4.535,-3.698,1.568,0.000
-4.517,-3.656,1.557,0.000
-4.471,-3.592,1.537,0.000
-4.457,-3.557,1.528,0.000
-4.446,-3.522,1.520,2.000
-4.454,-3.506,1.519,3.000
-4.482,-3.501,1.524,3.000
-4.503,-3.493,1.527,2.000
-4.527,-3.487,1.531,1.000
-4.539,-3.472,1.531,1.000
-4.561,-3.462,1.534,0.000
0,0,0,0
0,0,0,0
0,0,0,0
0,0,0,0
0,0,0,0
0,0,0,0
0,0,0,0
0,0,0,0
0,0,0,0
0,0,0,0
0,0,0,0
0,0,0,0
0,0,0,0
-4.102,-2.810,1.332,2.000
-4.096,-2.785,1.327,7.000
0,0,0,0
-4.112,-2.754,1.326,60.000
-4.126,-2.741,1.327,54.000
-4.128,-2.724,1.325,37.000
0,0,0,0
-4.163,-2.706,1.330,1.000
-4.172,-2.691,1.330,1.000
-4.202,-2.688,1.337,1.000
-4.247,-2.695,1.348,0.000
-2.803,-1.767,0.888,3.000
0,0,0,0
-2.786,-1.729,0.878,47.000
-2.785,-1.714,0.876,115.000
-2.748,-1.679,0.863,38.000
-2.739,-1.660,0.858,36.000
-2.690,-1.618,0.841,21.000
-2.688,-1.603,0.839,26.000
-2.695,-1.595,0.839,35.000
-2.699,-1.585,0.839,49.000
-2.686,-1.565,0.833,43.000
-2.681,-1.549,0.830,42.000
-2.670,-1.531,0.825,42.000
-2.658,-1.511,0.819,38.000
-2.635,-1.487,0.811,35.000
-2.630,-1.472,0.808,36.000
-2.625,-1.457,0.804,36.000
-2.622,-1.443,0.802,37.000
-2.616,-1.429,0.799,37.000
-2.598,-1.406,0.791,37.000
-2.578,-1.385,0.784,39.000
-2.573,-1.370,0.781,39.000
-2.567,-1.356,0.778,37.000
-2.555,-1.338,0.773,46.000
-2.543,-1.320,0.768,46.000
-2.525,-1.300,0.761,43.000
-2.536,-1.295,0.763,50.000
-2.527,-1.278,0.759,43.000
-2.521,-1.266,0.756,45.000
-2.506,-1.247,0.750,41.000
-2.497,-1.231,0.746,41.000
-2.485,-1.215,0.741,45.000
-2.481,-1.202,0.739,46.000
-2.475,-1.188,0.736,46.000
-2.451,-1.167,0.727,46.000
-2.444,-1.153,0.724,46.000
-2.432,-1.137,0.720,45.000
-2.426,-1.124,0.716,43.000
-2.437,-1.119,0.718,45.000
-2.409,-1.095,0.709,43.000
-2.406,-1.084,0.707,45.000
-2.414,-1.077,0.708,45.000
-2.406,-1.064,0.705,40.000
-2.403,-1.052,0.703,40.000
-2.385,-1.035,0.697,40.000
-2.371,-1.019,0.692,40.000
-2.366,-1.008,0.689,50.000
-2.368,-0.998,0.688,18.000
-2.374,-0.992,0.689,15.000
-2.371,-0.981,0.687,4.000
-3.962,-1.621,1.147,2.000
-3.986,-1.614,1.152,2.000
-4.009,-1.609,1.157,2.000
-4.029,-1.601,1.162,2.000
-4.036,-1.587,1.162,2.000
-4.047,-1.575,1.164,2.000
-4.074,-1.569,1.170,2.000
-4.098,-1.562,1.175,2.000
-4.108,-1.550,1.177,2.000
-4.134,-1.542,1.182,0.000
-2.271,-0.839,0.649,2.000
-2.285,-0.834,0.652,34.000
-2.253,-0.814,0.642,50.000
-2.258,-0.807,0.642,48.000
-2.237,-0.791,0.636,46.000
-2.223,-0.777,0.631,47.000
-2.233,-0.772,0.633,50.000
-2.223,-0.760,0.629,48.000
-2.224,-0.752,0.629,50.000
-2.208,-0.738,0.624,47.000
-2.196,-0.725,0.620,50.000
-2.198,-0.717,0.620,50.000
-2.190,-0.706,0.617,47.000
-2.185,-0.696,0.614,47.000
-2.174,-0.685,0.611,48.000
-2.158,-0.671,0.606,45.000
-2.159,-0.664,0.605,47.000
-2.165,-0.657,0.606,47.000
-2.163,-0.648,0.605,47.000
-2.143,-0.634,0.599,50.000
-2.140,-0.625,0.597,52.000
-2.137,-0.616,0.596,50.000
-2.133,-0.607,0.594,54.000
-2.135,-0.599,0.594,52.000
-2.122,-0.588,0.590,52.000
-2.115,-0.578,0.588,55.000
-2.108,-0.568,0.585,56.000
-2.110,-0.561,0.585,56.000
-2.110,-0.553,0.584,55.000
-2.097,-0.541,0.580,58.000
-2.080,-0.530,0.575,55.000
-2.082,-0.522,0.575,58.000
-2.091,-0.517,0.577,60.000
-2.082,-0.507,0.574,58.000
-2.062,-0.496,0.568,56.000
-2.057,-0.486,0.566,63.000
-2.053,-0.478,0.565,60.000
-2.058,-0.472,0.566,60.000
-2.052,-0.463,0.564,55.000
-2.035,-0.451,0.559,58.000
-2.033,-0.443,0.557,60.000
-2.031,-0.435,0.556,58.000
-2.026,-0.427,0.555,56.000
-2.030,-0.420,0.555,60.000
-2.018,-0.410,0.552,56.000
-2.008,-0.401,0.549,52.000
-2.011,-0.395,0.549,55.000
-2.009,-0.387,0.548,55.000
-2.006,-0.379,0.547,55.000
-1.995,-0.369,0.544,52.000
-1.986,-0.361,0.541,47.000
-1.982,-0.353,0.539,28.000
-1.985,-0.347,0.540,14.000
-1.996,-0.341,0.542,7.000
-1.980,-0.332,0.538,7.000
-1.973,-0.323,0.536,7.000
-1.978,-0.318,0.537,5.000
-1.966,-0.309,0.533,3.000
-1.978,-0.303,0.536,2.000
-1.960,-0.293,0.531,1.000
-1.931,-0.283,0.523,0.000
0,0,0,0
0,0,0,0
0,0,0,0
0,0,0,0
0,0,0,0
0,0,0,0
0,0,0,0
0,0,0,0
0,0,0,0
0,0,0,0
0,0,0,0
0,0,0,0
0,0,0,0
0,0,0,0
0,0,0,0
0,0,0,0
0,0,0,0
0,0,0,0
0,0,0,0
0,0,0,0
0,0,0,0
0,0,0,0
0,0,0,0
0,0,0,0
0,0,0,0
0,0,0,0
0,0,0,0
0,0,0,0
0,0,0,0
0,0,0,0
0,0,0,0
0,0,0,0
0,0,0,0
0,0,0,0
0,0,0,0
0,0,0,0
0,0,0,0
0,0,0,0
0,0,0,0
0,0,0,0
0,0,0,0
0,0,0,0
0,0,0,0
0,0,0,0
0,0,0,0
-0.483,0.007,0.129,7.000
0,0,0,0
0,0,0,0
0,0,0,0
0,0,0,0
0,0,0,0
0,0,0,0
0,0,0,0
0,0,0,0
0,0,0,0
0,0,0,0
0,0,0,0
0,0,0,0
0,0,0,0
0,0,0,0
0,0,0,0
0,0,0,0
0,0,0,0
0,0,0,0
0,0,0,0
0,0,0,0
0,0,0,0
0,0,0,0
0,0,0,0
0,0,0,0
-0.500,0.051,0.135,7.000
-0.480,0.050,0.129,7.000
0,0,0,0
-0.526,0.059,0.142,6.000
0,0,0,0
-0.480,0.057,0.129,7.000
0,0,0,0
-0.498,0.063,0.135,7.000
0,0,0,0
0,0,0,0
0,0,0,0
0,0,0,0
0,0,0,0
0,0,0,0
0,0,0,0
-0.523,0.081,0.142,6.000
-0.496,0.078,0.135,7.000
-0.477,0.077,0.129,7.000
-0.518,0.086,0.141,6.000
-0.495,0.084,0.135,7.000
-0.495,0.085,0.135,7.000
-0.540,0.095,0.147,6.000
-0.513,0.092,0.140,6.000
-0.494,0.091,0.135,7.000
-0.494,0.092,0.135,7.000
-0.539,0.103,0.147,6.000
-0.474,0.092,0.129,7.000
-0.519,0.103,0.142,6.000
-0.492,0.099,0.135,7.000
-0.473,0.097,0.129,7.000
-0.514,0.107,0.141,6.000
-0.586,0.124,0.160,5.000
-0.491,0.106,0.135,7.000
-0.585,0.128,0.160,5.000
-0.490,0.109,0.135,7.000
-0.584,0.132,0.160,5.000
-0.584,0.134,0.160,5.000
-0.583,0.136,0.160,5.000
-0.583,0.138,0.160,5.000
-0.515,0.124,0.142,6.000
-0.514,0.126,0.142,6.000
-0.581,0.145,0.160,5.000
-0.551,0.139,0.152,6.000
-0.580,0.149,0.160,5.000
-0.512,0.133,0.142,6.000
-0.579,0.153,0.160,5.000
-0.579,0.155,0.160,5.000
-0.541,0.147,0.150,6.000
-0.577,0.159,0.160,5.000
-0.577,0.160,0.160,5.000
-0.576,0.162,0.160,5.000
-0.576,0.165,0.160,5.000
-0.575,0.167,0.160,5.000
-0.575,0.168,0.160,5.000
-0.574,0.170,0.160,5.000
-0.573,0.173,0.160,5.000
-0.573,0.175,0.160,5.000
-0.572,0.177,0.160,5.000
-0.572,0.179,0.160,5.000
-0.571,0.180,0.160,5.000
-0.570,0.183,0.160,5.000
-0.570,0.184,0.160,5.000
-0.569,0.186,0.160,5.000
-0.568,0.188,0.160,5.000
-0.568,0.190,0.160,5.000
-0.567,0.192,0.160,5.000
-0.566,0.194,0.160,5.000
-0.566,0.196,0.160,5.000
-0.565,0.198,0.160,5.000
-0.564,0.200,0.160,5.000
-0.564,0.202,0.160,5.000
-0.563,0.204,0.160,5.000
-0.562,0.206,0.160,5.000
-0.562,0.208,0.160,5.000
-0.561,0.210,0.160,5.000
-0.560,0.212,0.160,5.000
0,0,0,0
-0.624,0.241,0.179,4.000
-0.558,0.218,0.160,5.000
-0.557,0.220,0.160,5.000
0,0,0,0
-0.556,0.224,0.160,5.000
0,0,0,0
0,0,0,0
0,0,0,0
0,0,0,0
0,0,0,0
-1.953,0.833,0.569,1.000
-1.967,0.848,0.574,7.000
-1.957,0.852,0.572,13.000
-1.942,0.853,0.568,28.000
-1.939,0.860,0.568,44.000
-1.938,0.868,0.569,56.000
-1.914,0.864,0.563,67.000
-1.897,0.865,0.559,65.000
-1.897,0.873,0.560,66.000
-1.894,0.880,0.560,68.000
-1.891,0.886,0.560,66.000
-1.885,0.890,0.559,73.000
-1.874,0.894,0.556,68.000
-1.875,0.903,0.557,68.000
-1.884,0.915,0.561,78.000
-1.875,0.919,0.560,68.000
-1.867,0.923,0.558,70.000
-1.855,0.925,0.555,68.000
-1.855,0.933,0.556,68.000
-1.857,0.942,0.558,70.000
-1.865,0.953,0.561,78.000
-1.854,0.957,0.559,63.000
-1.908,0.992,0.576,76.000
0,0,0,0
0,0,0,0
-6.694,3.573,2.033,0.000
-6.681,3.598,2.033,0.000
-6.668,3.622,2.033,0.000
-6.666,3.650,2.036,0.000
-6.646,3.670,2.034,0.000
-6.633,3.689,2.034,0.000
-6.626,3.715,2.035,0.000
-6.592,3.727,2.029,0.000
-6.569,3.745,2.026,0.000
-6.575,3.776,2.032,0.000
-6.575,3.807,2.036,0.000
-6.541,3.819,2.030,0.000
-6.522,3.840,2.028,0.000
-6.511,3.863,2.029,0.000
-6.513,3.895,2.033,0.000
-6.487,3.911,2.030,0.000
-6.475,3.935,2.030,0.000
-6.465,3.959,2.031,0.000
-6.461,3.987,2.034,0.000
-6.452,4.013,2.036,0.000
-6.421,4.026,2.031,0.000
-6.426,4.058,2.036,0.000
-6.408,4.079,2.035,0.000
-6.383,4.093,2.032,0.000
-6.379,4.124,2.035,0.000
-6.381,4.153,2.040,0.000
-6.332,4.154,2.029,0.000
-6.311,4.172,2.027,0.000
-6.319,4.211,2.035,0.000
-6.309,4.233,2.036,0.000
-6.298,4.257,2.037,0.000
-6.273,4.273,2.034,0.000
-6.256,4.295,2.033,0.000
-6.262,4.330,2.040,0.000
-6.244,4.349,2.039,0.000
-6.226,4.369,2.038,0.000
-6.203,4.387,2.036,0.000
-6.186,4.405,2.035,0.000
-6.168,4.424,2.034,0.000
-6.159,4.453,2.036,0.000
-6.157,4.485,2.041,0.000
-6.119,4.488,2.033,0.000
-6.109,4.514,2.035,0.000
-6.110,4.546,2.041,0.000
-6.099,4.573,2.043,0.000
-6.084,4.593,2.043,0.000
-6.058,4.608,2.039,0.000
-6.052,4.632,2.042,0.000
-6.018,4.641,2.036,0.000
-6.010,4.670,2.039,0.000
-5.996,4.695,2.041,0.000
-5.962,4.700,2.034,0.000
-5.960,4.734,2.039,0.000
-5.943,4.749,2.038,0.000
-5.938,4.780,2.043,0.000
-5.928,4.805,2.045,0.000
-5.889,4.810,2.037,0.000
-5.875,4.833,2.038,0.000
-5.861,4.856,2.039,0.000
-5.841,4.874,2.038,0.000
-5.826,4.898,2.039,0.000
-5.805,4.909,2.037,0.000
-5.783,4.925,2.035,0.000
-5.775,4.958,2.039,0.000
-5.760,4.981,2.041,0.000
-5.756,5.009,2.045,0.000
-5.727,5.019,2.041,0.000
-5.707,5.037,2.039,0.000
-5.688,5.057,2.039,0.000
-5.674,5.079,2.041,0.000
-5.667,5.110,2.045,0.000
-5.667,5.144,2.051,2.000
-5.634,5.152,2.046,3.000
-5.638,5.188,2.053,3.000
-5.613,5.203,2.051,3.000
-5.599,5.225,2.052,3.000
-5.574,5.240,2.050,2.000
-5.564,5.265,2.052,1.000
-7.520,7.166,2.783,0.000
-7.500,7.195,2.785,1.000
-7.491,7.239,2.791,0.000
-7.458,7.255,2.788,0.000
-7.448,7.296,2.794,0.000
-7.425,7.325,2.795,0.000
-7.412,7.366,2.800,0.000
-5.403,5.405,2.048,0.000
-5.379,5.418,2.046,0.000
-5.358,5.433,2.045,0.000
-5.361,5.474,2.053,1.000
-5.341,5.493,2.053,1.000
-5.328,5.517,2.055,1.000
-5.288,5.512,2.047,1.000
-5.272,5.536,2.048,0.000
-5.251,5.553,2.048,0.000
-5.232,5.573,2.048,0.000
-5.243,5.619,2.059,0.000
-5.199,5.612,2.050,0.000
-5.167,5.615,2.045,0.000
-5.149,5.637,2.046,0.000
-5.132,5.658,2.047,0.000
-5.103,5.668,2.044,0.000
-5.091,5.690,2.046,0.000
-5.076,5.713,2.048,0.000
-5.050,5.726,2.046,0.000
-5.042,5.759,2.051,0.000
-5.022,5.776,2.051,0.000
-4.995,5.784,2.048,0.000
-4.976,5.801,2.048,0.000
-4.974,5.843,2.056,0.000
-4.956,5.858,2.056,0.000
-4.923,5.861,2.051,0.000
-4.909,5.888,2.054,0.000
-4.896,5.914,2.057,0.000
-4.868,5.922,2.054,0.000
-4.869,5.966,2.063,0.000
-4.835,5.964,2.057,0.000
-1.909,2.372,0.816,2.000
-1.903,2.381,0.817,4.000
-1.893,2.387,0.816,4.000
-1.863,2.364,0.806,3.000
-1.826,2.334,0.794,1.000
-1.792,2.307,0.783,1.000
-1.762,2.286,0.773,1.000
-1.739,2.272,0.767,1.000
-1.722,2.266,0.762,1.000
-1.704,2.258,0.758,1.000
-1.673,2.233,0.747,1.000
-1.653,2.223,0.742,1.000
-1.618,2.192,0.730,1.000
-1.602,2.184,0.726,1.000
-1.590,2.183,0.724,1.000
-1.598,2.211,0.731,1.000
-1.570,2.188,0.722,1.000
-1.525,2.142,0.705,0.000
-1.422,2.011,0.660,1.000
-1.419,2.023,0.662,2.000
-1.398,2.007,0.655,2.000
-1.377,1.993,0.649,3.000
-1.366,1.991,0.647,6.000
-1.355,1.989,0.645,20.000
-1.340,1.983,0.641,30.000
-1.318,1.963,0.634,33.000
-1.299,1.950,0.628,33.000
-1.290,1.952,0.627,41.000
-1.287,1.963,0.629,77.000
-1.284,1.972,0.630,93.000
-1.260,1.951,0.622,45.000
-1.242,1.937,0.617,36.000
-1.237,1.944,0.618,36.000
-1.225,1.939,0.614,35.000
-1.208,1.927,0.609,35.000
-1.190,1.913,0.604,39.000
-1.174,1.902,0.599,38.000
-1.161,1.896,0.596,40.000
-1.153,1.897,0.595,40.000
-1.140,1.891,0.592,40.000
-1.122,1.877,0.586,42.000
-1.109,1.869,0.582,42.000
-1.097,1.865,0.580,44.000
-1.089,1.865,0.579,43.000
-1.077,1.859,0.576,43.000
-1.059,1.843,0.569,44.000
-1.046,1.836,0.566,43.000
-1.033,1.826,0.562,44.000
-1.033,1.842,0.566,78.000
-1.017,1.828,0.561,64.000
-1.009,1.829,0.560,65.000
-1.012,1.849,0.565,76.000
-1.011,1.863,0.568,84.000
-1.008,1.873,0.570,84.000
-1.003,1.880,0.571,73.000
-0.998,1.885,0.571,78.000
-0.992,1.890,0.572,81.000
-0.987,1.897,0.573,76.000
-0.985,1.909,0.576,70.000
-0.988,1.929,0.581,78.000
-0.975,1.923,0.578,78.000
-0.969,1.926,0.578,78.000
-0.967,1.938,0.580,76.000
-0.963,1.948,0.582,76.000
-0.963,1.966,0.586,68.000
-0.953,1.962,0.584,68.000
-0.947,1.967,0.585,63.000
-0.946,1.983,0.589,56.000
-0.940,1.988,0.589,49.000
-0.937,1.999,0.592,40.000
-0.928,1.999,0.591,31.000
-0.924,2.008,0.592,20.000
-0.919,2.018,0.594,10.000
-0.921,2.039,0.599,7.000
-0.910,2.035,0.597,5.000
-0.900,2.031,0.595,3.000
-0.897,2.045,0.598,2.000
-0.894,2.055,0.600,1.000
-0.889,2.065,0.603,0.000
-0.883,2.068,0.603,0.000
0,0,0,0
0,0,0,0
0,0,0,0
0,0,0,0
0,0,0,0
0,0,0,0
0,0,0,0
0,0,0,0
0,0,0,0
0,0,0,0
0,0,0,0
0,0,0,0
0,0,0,0
0,0,0,0
0,0,0,0
0,0,0,0
0,0,0,0
0,0,0,0
0,0,0,0
0,0,0,0
0,0,0,0
0,0,0,0
0,0,0,0
0,0,0,0
0,0,0,0
0,0,0,0
0,0,0,0
0,0,0,0
0,0,0,0
0,0,0,0
0,0,0,0
0,0,0,0
0,0,0,0
0,0,0,0
0,0,0,0
0,0,0,0
0,0,0,0
0,0,0,0
0,0,0,0
0,0,0,0
0,0,0,0
0,0,0,0
0,0,0,0
0,0,0,0
0,0,0,0
0,0,0,0
0,0,0,0
0,0,0,0
0,0,0,0
0,0,0,0
0,0,0,0
0,0,0,0
0,0,0,0
0,0,0,0
0,0,0,0
0,0,0,0
0,0,0,0
0,0,0,0
0,0,0,0
0,0,0,0
0,0,0,0
0,0,0,0
0,0,0,0
0,0,0,0
0,0,0,0
0,0,0,0
0,0,0,0
0,0,0,0
0,0,0,0
0,0,0,0
0,0,0,0
0,0,0,0
0,0,0,0
0,0,0,0
0,0,0,0
0,0,0,0
0,0,0,0
0,0,0,0
0,0,0,0
0,0,0,0
0,0,0,0
0,0,0,0
0,0,0,0
0,0,0,0
0,0,0,0
0,0,0,0
0,0,0,0
0,0,0,0
0,0,0,0
0,0,0,0
0,0,0,0
0,0,0,0
0,0,0,0
0,0,0,0
0,0,0,0
0,0,0,0
0,0,0,0
0,0,0,0
0,0,0,0
0,0,0,0
0,0,0,0
0,0,0,0
0,0,0,0
0,0,0,0
0,0,0,0
0,0,0,0
0,0,0,0
0,0,0,0
0,0,0,0
0,0,0,0
0,0,0,0
0,0,0,0
0,0,0,0
0,0,0,0
0,0,0,0
0,0,0,0
0,0,0,0
0,0,0,0
0,0,0,0
0,0,0,0
0,0,0,0
0,0,0,0
0,0,0,0
0,0,0,0
0,0,0,0
0,0,0,0
0,0,0,0
0,0,0,0
0,0,0,0
0,0,0,0
0,0,0,0
0,0,0,0
0,0,0,0
0,0,0,0
0,0,0,0
0,0,0,0
0,0,0,0
0,0,0,0
0,0,0,0
0,0,0,0
0,0,0,0
0,0,0,0
0,0,0,0
0,0,0,0
0,0,0,0
0,0,0,0
0,0,0,0
0,0,0,0
0,0,0,0
0,0,0,0
0,0,0,0
0,0,0,0
0,0,0,0
0,0,0,0
0,0,0,0
0,0,0,0
0,0,0,0
0,0,0,0
0,0,0,0
0,0,0,0
0,0,0,0
0,0,0,0
0,0,0,0
0,0,0,0
0,0,0,0
0,0,0,0
0,0,0,0
0,0,0,0
0,0,0,0
0,0,0,0
0,0,0,0
0,0,0,0
0,0,0,0
0,0,0,0
0,0,0,0
0,0,0,0
0,0,0,0
0,0,0,0
0,0,0,0
0,0,0,0
0,0,0,0
0,0,0,0
0,0,0,0
0,0,0,0
0,0,0,0
0,0,0,0
0,0,0,0
0,0,0,0
0,0,0,0
0,0,0,0
0,0,0,0
0,0,0,0
0,0,0,0
0,0,0,0
0,0,0,0
0,0,0,0
0,0,0,0
0,0,0,0
0,0,0,0
0,0,0,0
0,0,0,0
0,0,0,0
0,0,0,0
0,0,0,0
0,0,0,0
0,0,0,0
0,0,0,0
0,0,0,0
2.872,8.629,2.100,0.000
2.895,8.593,2.093,0.000
2.930,8.597,2.097,0.000
2.953,8.565,2.092,0.000
2.980,8.549,2.090,0.000
3.007,8.530,2.088,0.000
3.043,8.537,2.092,0.000
3.065,8.509,2.088,2.000
3.083,8.465,2.080,2.000
3.111,8.451,2.079,2.000
3.147,8.456,2.083,4.000
3.175,8.448,2.083,5.000
3.207,8.444,2.085,6.000
3.233,8.426,2.083,7.000
3.258,8.404,2.081,8.000
3.285,8.391,2.080,8.000
3.316,8.385,2.082,8.000
3.349,8.386,2.085,14.000
3.374,8.364,2.082,15.000
3.402,8.340,2.079,17.000
3.430,8.326,2.079,19.000
3.462,8.321,2.081,25.000
3.496,8.320,2.083,27.000
3.518,8.300,2.081,29.000
3.544,8.281,2.079,33.000
3.576,8.275,2.081,36.000
3.608,8.270,2.083,37.000
3.642,8.272,2.087,25.000
3.665,8.247,2.083,42.000
3.692,8.226,2.082,45.000
3.721,8.213,2.082,46.000
3.749,8.205,2.083,44.000
3.780,8.197,2.084,47.000
3.806,8.174,2.082,46.000
3.832,8.154,2.080,44.000
3.859,8.143,2.080,47.000
3.892,8.138,2.083,44.000
3.920,8.124,2.083,46.000
3.945,8.104,2.081,44.000
3.972,8.090,2.081,45.000
3.997,8.069,2.079,45.000
4.033,8.069,2.083,45.000
4.063,8.058,2.083,45.000
4.087,8.038,2.082,44.000
4.109,8.013,2.079,46.000
4.145,8.010,2.082,47.000
4.175,8.001,2.083,45.000
4.205,7.992,2.085,41.000
4.229,7.970,2.083,47.000
4.255,7.952,2.082,47.000
4.282,7.935,2.082,46.000
4.308,7.925,2.083,45.000
4.339,7.915,2.084,47.000
4.360,7.888,2.081,46.000
4.382,7.863,2.078,43.000
4.415,7.851,2.079,47.000
4.447,7.844,2.082,45.000
4.473,7.832,2.082,49.000
4.500,7.816,2.082,48.000
4.526,7.794,2.081,46.000
4.553,7.779,2.081,44.000
4.581,7.768,2.082,47.000
4.612,7.757,2.083,44.000
4.633,7.731,2.081,44.000
4.658,7.712,2.080,45.000
4.683,7.696,2.080,45.000
4.716,7.690,2.083,46.000
4.747,7.680,2.084,45.000
4.772,7.660,2.083,43.000
4.793,7.633,2.081,45.000
4.823,7.621,2.082,47.000
4.849,7.606,2.083,45.000
4.874,7.586,2.082,45.000
4.894,7.559,2.079,44.000
4.921,7.544,2.079,47.000
4.952,7.533,2.081,47.000
4.977,7.514,2.081,45.000
5.005,7.502,2.082,48.000
5.025,7.475,2.079,49.000
5.051,7.458,2.079,48.000
5.081,7.446,2.081,47.000
5.110,7.432,2.082,47.000
5.139,7.419,2.083,46.000
5.159,7.393,2.081,47.000
5.180,7.368,2.079,49.000
5.208,7.353,2.080,48.000
5.236,7.338,2.081,48.000
5.267,7.330,2.084,47.000
5.293,7.312,2.084,28.000
5.307,7.278,2.079,44.000
5.337,7.265,2.081,47.000
5.365,7.250,2.082,48.000
5.392,7.234,2.083,47.000
5.414,7.208,2.081,49.000
5.432,7.180,2.079,47.000
5.461,7.168,2.080,48.000
5.490,7.155,2.082,47.000
5.514,7.134,2.082,46.000
5.533,7.107,2.079,48.000
5.559,7.090,2.080,46.000
5.585,7.072,2.080,47.000
5.612,7.055,2.081,48.000
5.643,7.043,2.083,46.000
5.659,7.013,2.080,47.000
5.685,6.996,2.081,49.000
5.710,6.976,2.081,47.000
5.735,6.958,2.082,46.000
5.761,6.939,2.082,48.000
5.785,6.919,2.082,48.000
5.812,6.902,2.083,41.000
5.831,6.875,2.081,47.000
5.856,6.859,2.082,48.000
5.885,6.844,2.084,48.000
5.897,6.813,2.080,48.000
5.919,6.789,2.079,47.000
5.949,6.774,2.081,47.000
5.975,6.756,2.082,48.000
5.995,6.733,2.081,48.000
6.018,6.712,2.081,47.000
6.034,6.682,2.079,48.000
6.060,6.664,2.079,47.000
6.089,6.648,2.081,48.000
6.115,6.629,2.082,48.000
6.138,6.608,2.082,47.000
6.153,6.578,2.079,48.000
6.178,6.560,2.080,47.000
6.204,6.543,2.082,46.000
6.225,6.521,2.081,49.000
6.237,6.488,2.078,49.000
6.260,6.462,2.077,46.000
6.294,6.452,2.081,43.000
6.315,6.433,2.081,47.000
6.340,6.414,2.082,48.000
6.356,6.382,2.079,48.000
6.372,6.355,2.078,48.000
6.399,6.339,2.079,48.000
6.424,6.319,2.080,49.000
6.445,6.294,2.080,46.000
6.460,6.265,2.078,49.000
6.483,6.245,2.078,52.000
6.507,6.225,2.079,59.000
6.532,6.205,2.080,63.000
6.556,6.185,2.081,63.000
6.573,6.158,2.079,58.000
6.589,6.129,2.078,54.000
6.617,6.114,2.080,52.000
6.638,6.091,2.080,46.000
6.661,6.069,2.080,47.000
6.673,6.038,2.078,48.000
6.690,6.013,2.077,47.000
6.714,5.992,2.078,47.000
6.747,5.979,2.081,39.000
6.829,6.010,2.100,140.000
6.837,5.974,2.096,129.000
6.857,5.950,2.096,129.000
6.878,5.927,2.096,116.000
6.891,5.896,2.094,57.000
6.921,5.880,2.097,57.000
6.950,5.863,2.099,59.000
6.968,5.836,2.098,61.000
6.973,5.799,2.094,59.000
6.972,5.758,2.088,48.000
6.986,5.728,2.086,39.000
6.899,5.619,2.054,39.000
6.925,5.600,2.056,39.000
7.014,5.632,2.077,12.000
7.045,5.616,2.080,12.000
7.070,5.596,2.082,11.000
7.081,5.564,2.079,13.000
7.093,5.536,2.077,11.000
7.121,5.518,2.080,11.000
7.143,5.493,2.080,10.000
7.168,5.473,2.082,14.000
7.178,5.441,2.079,37.000
7.194,5.413,2.079,50.000
7.198,5.379,2.074,45.000
7.232,5.365,2.079,52.000
7.247,5.335,2.078,48.000
7.255,5.302,2.074,46.000
7.272,5.275,2.074,48.000
7.296,5.255,2.076,47.000
7.317,5.233,2.077,47.000
7.334,5.206,2.076,46.000
7.346,5.178,2.075,49.000
7.361,5.150,2.074,47.000
7.384,5.124,2.075,50.000
7.410,5.104,2.077,46.000
7.424,5.080,2.077,48.000
7.438,5.051,2.076,49.000
7.450,5.021,2.074,47.000
7.477,5.001,2.077,48.000
7.491,4.973,2.076,47.000
7.515,4.951,2.078,50.000
7.523,4.917,2.075,49.000
7.540,4.891,2.075,57.000
7.554,4.863,2.074,58.000
7.541,4.817,2.066,17.000
7.490,4.749,2.048,18.000
7.445,4.685,2.031,55.000
7.411,4.629,2.017,63.000
7.386,4.578,2.006,66.000
7.358,4.523,1.994,105.000
7.325,4.468,1.981,68.000
7.291,4.412,1.967,66.000
7.254,4.355,1.953,111.000
7.224,4.303,1.941,68.000
7.241,4.279,1.942,136.000
7.263,4.258,1.944,136.000
7.289,4.239,1.947,137.000
7.307,4.215,1.948,136.000
7.346,4.204,1.954,135.000
7.382,4.192,1.960,135.000
7.413,4.175,1.964,131.000
7.435,4.153,1.966,132.000
7.456,4.131,1.968,133.000
7.491,4.116,1.973,135.000
7.531,4.104,1.980,137.000
7.550,4.081,1.981,135.000
7.587,4.066,1.987,138.000
7.604,4.042,1.988,135.000
7.644,4.029,1.995,136.000
7.678,4.014,2.000,135.000
7.720,4.002,2.007,132.000
7.741,3.978,2.009,131.000
7.765,3.956,2.012,133.000
7.800,3.940,2.017,136.000
7.834,3.923,2.023,136.000
7.855,3.899,2.025,133.000
7.893,3.884,2.031,133.000
7.920,3.863,2.034,123.000
7.974,3.855,2.045,41.000
8.025,3.848,2.055,33.000
8.056,3.829,2.059,30.000
8.082,3.805,2.062,32.000
8.102,3.780,2.064,36.000
8.145,3.767,2.072,44.000
8.174,3.746,2.076,57.000
8.191,3.717,2.077,57.000
8.194,3.684,2.074,50.000
8.200,3.656,2.073,52.000
8.221,3.631,2.075,55.000
8.235,3.600,2.075,50.000
8.253,3.573,2.076,52.000
8.257,3.540,2.074,48.000
6.283,2.668,1.576,35.000
6.265,2.637,1.569,114.000
6.270,2.614,1.568,20.000
6.240,2.576,1.558,14.000
6.247,2.553,1.558,122.000
6.232,2.522,1.552,33.000
6.216,2.490,1.546,105.000
6.207,2.460,1.541,105.000
6.183,2.425,1.533,105.000
6.160,2.392,1.526,102.000
6.148,2.363,1.521,33.000
6.133,2.332,1.515,37.000
6.116,2.301,1.509,102.000
6.099,2.273,1.503,108.000
6.070,2.238,1.494,105.000
6.047,2.205,1.486,102.000
6.037,2.177,1.482,102.000
6.026,2.150,1.477,37.000
6.022,2.125,1.474,36.000
5.989,2.089,1.464,102.000
5.965,2.057,1.457,108.000
5.954,2.031,1.452,108.000
5.942,2.004,1.448,108.000
5.934,1.979,1.444,111.000
5.908,1.947,1.436,105.000
5.887,1.917,1.429,36.000
5.879,1.892,1.426,102.000
5.870,1.867,1.422,102.000
5.849,1.837,1.415,108.000
5.825,1.809,1.408,33.000
5.757,1.766,1.390,8.000
5.757,1.744,1.389,12.000
5.739,1.716,1.383,13.000
5.779,1.706,1.391,26.000
5.789,1.687,1.392,8.000
7.193,2.069,1.728,19.000
7.236,2.054,1.737,23.000
7.286,2.044,1.747,23.000
7.319,2.026,1.753,25.000
7.336,2.003,1.756,27.000
7.363,1.983,1.760,28.000
7.402,1.965,1.768,27.000
7.439,1.947,1.775,30.000
7.480,1.930,1.783,30.000
7.509,1.910,1.789,31.000
7.531,1.886,1.792,30.000
7.564,1.866,1.799,30.000
0,0,0,0
5.530,1.325,1.313,17.000
5.503,1.297,1.305,122.000
5.492,1.274,1.302,114.000
5.471,1.250,1.296,118.000
5.468,1.229,1.294,119.000
5.461,1.207,1.291,121.000
5.446,1.184,1.287,124.000
5.427,1.161,1.281,124.000
5.410,1.138,1.276,127.000
5.403,1.117,1.274,127.000
5.386,1.094,1.269,122.000
5.366,1.071,1.263,121.000
5.351,1.049,1.259,123.000
5.343,1.027,1.256,123.000
5.335,1.006,1.253,118.000
5.331,0.986,1.252,121.000
5.319,0.965,1.248,124.000
5.299,0.942,1.243,126.000
5.287,0.921,1.239,126.000
5.283,0.901,1.237,126.000
5.276,0.881,1.235,128.000
5.247,0.857,1.227,124.000
5.232,0.836,1.223,127.000
5.214,0.816,1.218,123.000
5.209,0.796,1.217,123.000
5.204,0.777,1.215,126.000
5.195,0.757,1.212,124.000
5.175,0.736,1.207,119.000
5.169,0.716,1.205,122.000
5.164,0.697,1.203,124.000
5.159,0.678,1.201,124.000
5.140,0.657,1.196,127.000
5.119,0.636,1.191,127.000
5.113,0.618,1.189,129.000
5.108,0.599,1.187,129.000
5.098,0.580,1.185,127.000
5.073,0.559,1.178,30.000
3.949,0.422,0.917,8.000
3.900,0.403,0.905,10.000
3.909,0.390,0.907,17.000
3.911,0.376,0.907,25.000
3.887,0.361,0.901,22.000
3.855,0.344,0.894,33.000
3.652,0.313,0.846,18.000
3.640,0.299,0.843,5.000
3.627,0.285,0.840,6.000
3.626,0.273,0.840,5.000
3.619,0.259,0.838,5.000
3.622,0.247,0.838,6.000
3.637,0.235,0.841,33.000
0,0,0,0
