"X","Y","Z","Intensity"
6.730,3.790,2.070,69.000
6.741,3.769,2.070,69.000
6.764,3.749,2.072,74.000
6.774,3.726,2.072,72.000
6.781,3.697,2.070,69.000
6.796,3.674,2.070,74.000
6.810,3.652,2.071,72.000
6.826,3.631,2.072,69.000
6.846,3.609,2.074,72.000
6.849,3.583,2.071,105.000
6.858,3.558,2.070,102.000
6.868,3.533,2.070,72.000
6.888,3.511,2.072,72.000
6.905,3.491,2.073,102.000
6.905,3.461,2.070,72.000
6.916,3.435,2.069,74.000
6.926,3.409,2.068,72.000
6.940,3.386,2.069,74.000
6.957,3.364,2.071,72.000
6.962,3.339,2.069,102.000
6.968,3.310,2.067,74.000
6.990,3.291,2.070,105.000
7.003,3.266,2.071,102.000
7.017,3.247,2.072,74.000
7.020,3.217,2.069,72.000
7.020,3.187,2.066,69.000
7.042,3.166,2.069,69.000
7.058,3.147,2.071,74.000
7.067,3.120,2.070,69.000
7.071,3.093,2.068,72.000
7.078,3.067,2.067,69.000
7.097,3.046,2.070,74.000
6.291,2.673,1.831,111.000
6.271,2.639,1.823,130.000
6.236,2.598,1.810,49.000
6.208,2.564,1.800,36.000
6.252,2.555,1.810,110.000
6.244,2.528,1.805,121.000
6.210,2.489,1.793,115.000
6.187,2.452,1.783,115.000
6.170,2.421,1.776,121.000
6.157,2.392,1.770,122.000
6.136,2.359,1.762,122.000
6.122,2.331,1.755,121.000
6.093,2.294,1.744,119.000
6.073,2.263,1.737,118.000
6.067,2.236,1.733,115.000
6.060,2.210,1.728,121.000
6.043,2.179,1.721,121.000
6.006,2.143,1.709,122.000
5.985,2.111,1.700,122.000
5.971,2.086,1.695,119.000
5.958,2.057,1.689,118.000
5.952,2.033,1.685,119.000
5.930,2.003,1.677,118.000
5.915,1.975,1.671,122.000
5.893,1.943,1.663,122.000
5.885,1.917,1.659,125.000
5.872,1.890,1.653,124.000
5.845,1.861,1.644,124.000
5.822,1.830,1.635,119.000
5.813,1.806,1.631,103.000
5.760,1.768,1.615,24.000
5.770,1.749,1.616,38.000
5.732,1.715,1.603,38.000
5.758,1.701,1.609,63.000
5.766,1.682,1.609,14.000
7.212,2.078,2.011,18.000
3.676,1.044,1.024,4.000
3.698,1.037,1.029,14.000
3.677,1.017,1.022,9.000
3.714,1.014,1.032,12.000
3.710,0.998,1.030,8.000
3.609,0.958,1.001,9.000
3.430,0.897,0.950,26.000
7.464,1.925,2.065,33.000
7.493,1.903,2.072,41.000
7.492,1.879,2.070,39.000
7.504,1.854,2.071,36.000
7.489,1.823,2.065,9.000
5.503,1.318,1.516,26.000
5.488,1.295,1.511,116.000
5.489,1.275,1.510,124.000
5.478,1.253,1.506,131.000
5.441,1.223,1.494,132.000
5.421,1.200,1.488,129.000
5.435,1.183,1.490,134.000
5.411,1.157,1.483,129.000
5.413,1.138,1.482,131.000
5.379,1.112,1.472,129.000
5.369,1.090,1.468,127.000
5.363,1.071,1.465,128.000
5.356,1.049,1.462,128.000
5.348,1.029,1.459,131.000
5.331,1.005,1.454,133.000
5.298,0.981,1.444,132.000
5.290,0.959,1.441,131.000
5.280,0.940,1.437,130.000
5.272,0.918,1.434,129.000
5.269,0.900,1.432,131.000
5.253,0.877,1.427,131.000
5.241,0.857,1.423,130.000
5.238,0.838,1.421,130.000
5.230,0.818,1.418,128.000
5.214,0.796,1.413,128.000
5.197,0.776,1.408,131.000
5.192,0.757,1.406,131.000
5.176,0.736,1.401,133.000
5.165,0.715,1.397,135.000
5.137,0.694,1.389,130.000
5.131,0.675,1.387,135.000
5.109,0.653,1.380,129.000
5.130,0.637,1.385,134.000
5.102,0.616,1.377,129.000
5.100,0.598,1.376,131.000
5.077,0.578,1.369,129.000
5.069,0.559,1.367,130.000
5.067,0.542,1.366,128.000
5.060,0.523,1.363,127.000
5.040,0.503,1.357,131.000
5.031,0.483,1.354,134.000
5.013,0.466,1.349,133.000
5.007,0.447,1.347,132.000
4.993,0.428,1.343,133.000
4.966,0.407,1.335,130.000
4.963,0.391,1.334,130.000
4.951,0.372,1.330,131.000
4.946,0.355,1.329,130.000
4.959,0.337,1.332,133.000
4.926,0.319,1.323,129.000
4.925,0.301,1.322,134.000
4.910,0.283,1.318,131.000
4.906,0.265,1.316,130.000
4.901,0.250,1.315,131.000
4.882,0.232,1.310,133.000
4.864,0.212,1.304,132.000
4.866,0.195,1.305,134.000
4.850,0.179,1.300,132.000
4.844,0.162,1.299,135.000
4.824,0.146,1.293,133.000
4.805,0.127,1.288,132.000
4.801,0.111,1.287,133.000
4.798,0.093,1.286,133.000
4.794,0.077,1.285,131.000
4.769,0.059,1.278,130.000
4.779,0.043,1.281,134.000
4.758,0.025,1.275,130.000
4.764,0.011,1.276,131.000
4.745,-0.007,1.271,129.000
4.733,-0.022,1.268,130.000
4.719,-0.039,1.265,130.000
4.711,-0.055,1.263,130.000
4.707,-0.072,1.261,130.000
4.707,-0.089,1.261,130.000
4.691,-0.105,1.257,128.000
4.675,-0.120,1.253,131.000
4.675,-0.137,1.253,131.000
4.663,-0.152,1.250,133.000
4.660,-0.168,1.250,116.000
4.637,-0.185,1.243,36.000
4.630,-0.201,1.242,38.000
4.637,-0.216,1.244,38.000
4.650,-0.233,1.248,114.000
4.659,-0.250,1.250,124.000
4.629,-0.265,1.242,127.000
4.611,-0.279,1.238,128.000
4.613,-0.296,1.239,128.000
4.609,-0.311,1.238,130.000
4.607,-0.328,1.238,131.000
4.579,-0.341,1.230,128.000
4.568,-0.357,1.228,127.000
4.563,-0.372,1.227,127.000
4.562,-0.389,1.227,127.000
4.557,-0.402,1.226,125.000
4.540,-0.416,1.222,127.000
4.527,-0.432,1.219,125.000
4.522,-0.448,1.217,125.000
4.520,-0.463,1.217,125.000
4.513,-0.478,1.216,124.000
4.494,-0.492,1.211,122.000
4.492,-0.509,1.211,125.000
4.481,-0.521,1.209,124.000
4.483,-0.537,1.210,125.000
4.477,-0.554,1.209,125.000
4.458,-0.567,1.204,128.000
4.448,-0.582,1.202,128.000
4.442,-0.597,1.201,130.000
4.436,-0.610,1.200,130.000
4.426,-0.625,1.198,130.000
4.420,-0.639,1.197,130.000
4.407,-0.654,1.194,131.000
4.401,-0.668,1.193,130.000
4.406,-0.685,1.195,131.000
4.392,-0.697,1.192,131.000
4.378,-0.711,1.188,130.000
4.364,-0.724,1.185,131.000
4.358,-0.739,1.184,130.000
4.361,-0.754,1.186,133.000
4.339,-0.766,1.181,128.000
4.335,-0.782,1.180,131.000
4.307,-0.793,1.173,127.000
4.322,-0.810,1.178,131.000
4.311,-0.823,1.176,128.000
4.316,-0.840,1.178,130.000
4.298,-0.853,1.174,128.000
4.283,-0.864,1.171,128.000
4.280,-0.879,1.171,130.000
4.277,-0.895,1.171,131.000
4.268,-0.909,1.169,125.000
4.254,-0.921,1.166,127.000
4.241,-0.934,1.164,128.000
4.238,-0.948,1.164,128.000
4.238,-0.964,1.165,128.000
4.230,-0.976,1.163,125.000
4.211,-0.988,1.159,122.000
4.176,-0.994,1.150,39.000
4.163,-1.007,1.148,39.000
4.165,-1.023,1.149,45.000
4.178,-1.042,1.154,117.000
4.133,-1.046,1.142,57.000
4.135,-1.062,1.144,52.000
4.164,-1.084,1.153,70.000
7.283,-1.923,2.018,115.000
7.266,-1.947,2.016,119.000
7.235,-1.967,2.009,118.000
7.217,-1.987,2.006,118.000
7.211,-2.012,2.006,118.000
7.196,-2.035,2.004,118.000
7.190,-2.062,2.004,119.000
7.170,-2.083,2.001,118.000
7.150,-2.104,1.997,112.000
7.144,-2.130,1.998,119.000
7.131,-2.153,1.996,118.000
7.127,-2.180,1.997,115.000
7.105,-2.201,1.993,115.000
7.087,-2.219,1.990,115.000
7.082,-2.247,1.991,115.000
7.071,-2.269,1.990,115.000
7.066,-2.296,1.991,112.000
7.042,-2.314,1.986,119.000
7.030,-2.339,1.985,119.000
7.020,-2.361,1.985,115.000
7.004,-2.384,1.983,118.000
7.000,-2.409,1.984,118.000
6.978,-2.430,1.980,119.000
6.965,-2.451,1.978,121.000
6.956,-2.476,1.978,118.000
6.940,-2.497,1.976,115.000
0,0,0,0
3.916,-1.440,1.118,72.000
3.919,-1.457,1.120,103.000
3.928,-1.476,1.124,131.000
3.910,-1.486,1.121,137.000
3.892,-1.493,1.117,135.000
3.871,-1.501,1.112,131.000
3.865,-1.515,1.112,132.000
3.860,-1.529,1.112,132.000
3.858,-1.543,1.113,133.000
3.855,-1.557,1.114,136.000
3.842,-1.567,1.112,134.000
3.831,-1.579,1.110,133.000
3.826,-1.592,1.110,133.000
3.827,-1.609,1.112,134.000
3.824,-1.622,1.113,133.000
3.805,-1.631,1.109,135.000
3.800,-1.643,1.109,134.000
3.790,-1.655,1.108,134.000
3.784,-1.669,1.108,130.000
3.757,-1.674,1.102,57.000
3.752,-1.685,1.102,136.000
3.741,-1.696,1.100,137.000
3.736,-1.710,1.101,139.000
3.734,-1.725,1.102,139.000
3.732,-1.739,1.103,139.000
3.717,-1.747,1.100,140.000
3.707,-1.760,1.099,140.000
3.697,-1.772,1.098,140.000
3.703,-1.790,1.102,138.000
3.693,-1.801,1.101,139.000
3.675,-1.808,1.097,140.000
3.665,-1.819,1.096,140.000
3.662,-1.834,1.097,140.000
3.659,-1.848,1.098,140.000
3.656,-1.862,1.099,140.000
3.641,-1.871,1.097,139.000
3.624,-1.878,1.094,139.000
3.626,-1.896,1.096,140.000
3.634,-1.914,1.100,140.000
3.627,-1.928,1.100,140.000
3.608,-1.934,1.097,139.000
3.594,-1.943,1.095,141.000
3.591,-1.957,1.096,141.000
3.591,-1.974,1.098,141.000
3.586,-1.986,1.098,140.000
3.574,-1.995,1.097,141.000
3.559,-2.004,1.094,140.000
3.558,-2.020,1.096,140.000
3.558,-2.036,1.098,140.000
3.554,-2.050,1.099,140.000
3.542,-2.060,1.098,142.000
3.524,-2.068,1.095,139.000
3.521,-2.080,1.096,139.000
3.524,-2.098,1.099,139.000
3.513,-2.110,1.098,139.000
3.495,-2.116,1.095,139.000
3.490,-2.129,1.095,140.000
3.492,-2.147,1.098,140.000
3.480,-2.155,1.097,139.000
3.477,-2.171,1.098,140.000
3.462,-2.178,1.096,139.000
3.455,-2.191,1.096,139.000
3.447,-2.202,1.096,47.000
3.466,-2.232,1.105,127.000
3.471,-2.253,1.109,133.000
3.447,-2.255,1.104,135.000
3.433,-2.261,1.102,136.000
3.435,-2.280,1.105,136.000
3.433,-2.296,1.107,135.000
3.429,-2.310,1.108,134.000
3.414,-2.318,1.106,134.000
3.402,-2.329,1.105,136.000
3.401,-2.344,1.107,135.000
3.393,-2.355,1.107,135.000
3.391,-2.372,1.109,134.000
3.373,-2.377,1.106,136.000
3.368,-2.391,1.107,135.000
3.360,-2.403,1.107,134.000
3.361,-2.421,1.110,135.000
3.352,-2.433,1.110,134.000
3.341,-2.442,1.109,134.000
3.332,-2.454,1.109,134.000
3.323,-2.465,1.109,134.000
3.319,-2.481,1.110,132.000
3.317,-2.497,1.112,133.000
3.298,-2.502,1.109,132.000
3.294,-2.515,1.110,133.000
3.284,-2.527,1.110,132.000
3.284,-2.543,1.113,134.000
3.276,-2.557,1.113,133.000
3.263,-2.564,1.112,135.000
3.255,-2.577,1.112,132.000
3.247,-2.590,1.113,134.000
3.244,-2.606,1.115,132.000
3.238,-2.619,1.116,132.000
3.226,-2.629,1.115,131.000
3.216,-2.638,1.114,134.000
3.211,-2.653,1.116,132.000
3.206,-2.668,1.118,135.000
3.200,-2.684,1.119,133.000
3.191,-2.692,1.119,134.000
3.177,-2.700,1.117,132.000
3.171,-2.715,1.119,134.000
3.166,-2.730,1.120,132.000
3.165,-2.746,1.123,134.000
3.151,-2.753,1.121,133.000
3.137,-2.760,1.120,135.000
3.136,-2.779,1.123,134.000
3.130,-2.795,1.124,133.000
3.124,-2.810,1.126,135.000
3.113,-2.817,1.125,135.000
3.102,-2.828,1.125,135.000
3.097,-2.842,1.126,131.000
3.094,-2.860,1.129,136.000
3.084,-2.870,1.129,128.000
3.094,-2.900,1.136,139.000
3.065,-2.891,1.129,135.000
3.060,-2.907,1.131,134.000
3.060,-2.927,1.135,137.000
3.063,-2.952,1.140,133.000
3.041,-2.950,1.135,135.000
3.031,-2.960,1.135,135.000
3.020,-2.971,1.135,136.000
3.023,-2.996,1.140,134.000
3.016,-3.008,1.141,135.000
3.007,-3.020,1.142,136.000
2.990,-3.026,1.140,135.000
2.988,-3.044,1.143,134.000
2.983,-3.060,1.145,135.000
2.983,-3.081,1.149,134.000
2.965,-3.083,1.146,134.000
2.955,-3.095,1.147,133.000
2.952,-3.113,1.150,133.000
2.950,-3.134,1.153,134.000
2.948,-3.152,1.156,134.000
2.927,-3.153,1.153,133.000
2.919,-3.166,1.154,133.000
2.913,-3.182,1.156,132.000
2.911,-3.200,1.159,131.000
2.901,-3.213,1.160,133.000
2.893,-3.226,1.161,131.000
2.881,-3.234,1.161,130.000
2.880,-3.256,1.165,130.000
2.865,-3.264,1.164,129.000
2.870,-3.291,1.170,133.000
2.845,-3.286,1.165,130.000
2.844,-3.308,1.169,133.000
2.827,-3.312,1.167,128.000
2.832,-3.341,1.173,131.000
2.829,-3.361,1.177,133.000
2.801,-3.352,1.170,131.000
2.793,-3.366,1.172,130.000
2.799,-3.398,1.180,134.000
2.784,-3.403,1.178,130.000
2.774,-3.414,1.179,129.000
2.774,-3.441,1.184,136.000
2.749,-3.432,1.178,130.000
2.758,-3.469,1.187,133.000
2.742,-3.474,1.186,131.000
2.734,-3.490,1.188,131.000
2.718,-3.493,1.186,131.000
2.710,-3.509,1.188,132.000
2.703,-3.524,1.190,131.000
2.700,-3.546,1.194,133.000
2.696,-3.566,1.198,130.000
2.682,-3.574,1.197,133.000
2.673,-3.588,1.199,134.000
2.664,-3.602,1.200,132.000
2.664,-3.626,1.206,131.000
2.657,-3.643,1.208,130.000
2.642,-3.651,1.208,131.000
2.631,-3.664,1.209,131.000
2.623,-3.679,1.211,129.000
2.618,-3.699,1.214,127.000
2.612,-3.720,1.218,130.000
2.598,-3.727,1.217,127.000
2.590,-3.740,1.219,128.000
2.581,-3.756,1.221,130.000
2.575,-3.774,1.224,131.000
2.561,-3.784,1.224,129.000
2.559,-3.808,1.229,134.000
2.538,-3.806,1.226,127.000
2.537,-3.832,1.231,130.000
2.531,-3.855,1.236,131.000
2.522,-3.870,1.238,130.000
2.512,-3.886,1.240,131.000
2.497,-3.891,1.239,131.000
2.481,-3.898,1.238,129.000
2.488,-3.937,1.248,131.000
2.474,-3.946,1.248,130.000
2.462,-3.954,1.248,129.000
2.457,-3.978,1.253,130.000
2.449,-3.996,1.256,128.000
2.443,-4.016,1.259,127.000
2.433,-4.033,1.262,124.000
2.416,-4.038,1.261,40.000
2.407,-4.053,1.263,32.000
3.818,-6.482,2.016,37.000
3.798,-6.500,2.017,35.000
3.777,-6.515,2.018,37.000
3.746,-6.517,2.014,36.000
3.726,-6.535,2.016,37.000
3.706,-6.551,2.017,37.000
3.684,-6.568,2.018,37.000
3.663,-6.579,2.018,38.000
3.636,-6.586,2.016,36.000
3.611,-6.595,2.015,36.000
3.587,-6.610,2.015,38.000
3.566,-6.619,2.015,36.000
3.547,-6.643,2.018,36.000
3.520,-6.642,2.014,38.000
3.496,-6.656,2.015,36.000
3.473,-6.671,2.015,37.000
3.456,-6.697,2.019,56.000
3.410,-6.664,2.006,28.000
3.412,-6.728,2.021,31.000
2.238,-4.447,1.334,6.000
0,0,0,0
2.197,-4.442,1.328,27.000
2.191,-4.470,1.334,34.000
2.176,-4.478,1.334,39.000
2.157,-4.478,1.332,24.000
2.157,-4.523,1.343,33.000
2.157,-4.564,1.353,75.000
2.151,-4.588,1.358,105.000
2.136,-4.597,1.358,118.000
2.123,-4.612,1.360,118.000
2.114,-4.637,1.366,115.000
2.106,-4.658,1.370,112.000
2.094,-4.676,1.373,109.000
2.077,-4.683,1.373,109.000
2.064,-4.700,1.375,75.000
2.055,-4.719,1.379,109.000
2.046,-4.747,1.385,115.000
2.035,-4.765,1.388,118.000
2.018,-4.772,1.388,112.000
2.006,-4.786,1.390,118.000
2.002,-4.823,1.399,119.000
1.992,-4.850,1.405,118.000
1.980,-4.871,1.409,115.000
1.969,-4.888,1.412,115.000
1.953,-4.899,1.413,115.000
1.945,-4.927,1.419,112.000
1.932,-4.949,1.424,109.000
1.922,-4.971,1.428,106.000
1.905,-4.978,1.428,106.000
1.891,-4.998,1.432,109.000
1.881,-5.022,1.437,115.000
1.870,-5.047,1.442,115.000
1.859,-5.072,1.447,118.000
1.845,-5.087,1.450,119.000
1.831,-5.106,1.454,118.000
1.823,-5.130,1.459,115.000
1.812,-5.160,1.465,109.000
1.802,-5.188,1.472,109.000
1.785,-5.202,1.474,109.000
1.771,-5.217,1.476,106.000
1.757,-5.238,1.480,103.000
1.747,-5.264,1.486,109.000
1.734,-5.289,1.491,118.000
1.715,-5.295,1.491,33.000
1.694,-5.292,1.489,24.000
1.688,-5.338,1.500,31.000
1.671,-5.351,1.502,105.000
1.663,-5.386,1.510,118.000
1.644,-5.390,1.510,125.000
1.632,-5.414,1.515,125.000
1.616,-5.435,1.519,122.000
1.604,-5.465,1.526,119.000
1.592,-5.492,1.532,124.000
1.572,-5.502,1.533,119.000
1.557,-5.522,1.537,119.000
1.544,-5.548,1.543,118.000
1.541,-5.615,1.560,119.000
1.530,-5.648,1.568,121.000
1.513,-5.665,1.571,115.000
1.475,-5.595,1.550,55.000
1.457,-5.611,1.553,64.000
1.430,-5.577,1.543,54.000
1.409,-5.580,1.542,55.000
1.382,-5.557,1.534,51.000
1.357,-5.541,1.529,51.000
1.335,-5.525,1.523,48.000
1.313,-5.524,1.521,51.000
1.291,-5.515,1.518,54.000
1.267,-5.495,1.511,57.000
1.239,-5.462,1.501,55.000
1.214,-5.445,1.495,52.000
1.199,-5.461,1.498,60.000
1.173,-5.437,1.490,56.000
1.149,-5.416,1.484,51.000
1.127,-5.409,1.480,54.000
1.106,-5.397,1.476,52.000
1.085,-5.392,1.474,55.000
1.065,-5.388,1.472,55.000
1.040,-5.361,1.463,57.000
1.017,-5.346,1.458,56.000
0.996,-5.336,1.455,54.000
0.977,-5.326,1.451,55.000
0.954,-5.313,1.446,54.000
0.932,-5.293,1.440,53.000
0.909,-5.275,1.434,52.000
0.891,-5.276,1.434,51.000
0.870,-5.268,1.431,50.000
0.849,-5.248,1.425,47.000
0.828,-5.238,1.421,48.000
0.808,-5.216,1.414,51.000
0.788,-5.209,1.412,54.000
0.769,-5.206,1.410,57.000
0.746,-5.180,1.402,52.000
0.725,-5.161,1.397,55.000
0.703,-5.141,1.390,55.000
0.686,-5.141,1.390,52.000
0.666,-5.125,1.385,52.000
0.648,-5.123,1.384,53.000
0.627,-5.104,1.378,49.000
0.608,-5.101,1.376,54.000
0.589,-5.089,1.373,50.000
0.569,-5.082,1.370,48.000
0.550,-5.074,1.368,50.000
0.530,-5.051,1.361,54.000
0.511,-5.039,1.357,57.000
0.494,-5.016,1.351,54.000
0.475,-5.012,1.349,55.000
0.456,-5.006,1.347,55.000
0.436,-4.988,1.342,57.000
0.417,-4.969,1.336,53.000
0.398,-4.962,1.334,54.000
0.384,-4.962,1.333,55.000
0.364,-4.950,1.330,54.000
0.347,-4.931,1.325,52.000
0.329,-4.935,1.325,51.000
0.311,-4.928,1.323,51.000
0.293,-4.923,1.322,51.000
0.276,-4.917,1.319,51.000
0.257,-4.902,1.315,51.000
0.241,-4.889,1.312,54.000
0.223,-4.882,1.310,54.000
0.205,-4.876,1.308,54.000
0.187,-4.872,1.307,54.000
0.170,-4.858,1.302,60.000
0.153,-4.833,1.296,56.000
0.136,-4.826,1.294,58.000
0.120,-4.822,1.293,55.000
0.102,-4.811,1.289,56.000
0.085,-4.792,1.284,55.000
0.069,-4.779,1.281,53.000
0.052,-4.775,1.280,53.000
0.035,-4.768,1.278,54.000
0.017,-4.764,1.276,54.000
0.002,-4.748,1.272,53.000
-0.016,-4.741,1.270,54.000
-0.031,-4.741,1.270,54.000
-0.049,-4.733,1.268,54.000
-0.064,-4.733,1.268,53.000
-0.082,-4.719,1.265,55.000
-0.096,-4.699,1.259,58.000
-0.112,-4.695,1.258,57.000
-0.129,-4.698,1.259,57.000
-0.146,-4.686,1.256,57.000
-0.160,-4.670,1.252,57.000
-0.175,-4.651,1.247,56.000
-0.191,-4.646,1.246,55.000
-0.208,-4.638,1.244,56.000
-0.223,-4.625,1.241,55.000
-0.239,-4.613,1.238,55.000
-0.254,-4.595,1.233,53.000
-0.271,-4.594,1.233,54.000
-0.286,-4.581,1.230,53.000
-0.302,-4.582,1.230,56.000
-0.316,-4.558,1.224,51.000
-0.333,-4.564,1.226,64.000
-0.347,-4.548,1.222,56.000
-0.363,-4.541,1.221,53.000
-0.378,-4.540,1.221,52.000
-0.393,-4.521,1.216,55.000
-0.408,-4.520,1.216,55.000
-0.424,-4.514,1.215,55.000
0,0,0,0
0,0,0,0
-0.356,-3.412,0.919,133.000
-0.364,-3.377,0.910,130.000
-0.377,-3.389,0.914,134.000
-0.387,-3.372,0.909,131.000
-0.397,-3.363,0.907,132.000
-0.409,-3.360,0.907,129.000
-0.420,-3.356,0.906,134.000
-0.432,-3.345,0.904,130.000
-0.443,-3.348,0.905,130.000
-0.454,-3.340,0.903,131.000
-0.465,-3.327,0.900,131.000
-0.475,-3.318,0.898,133.000
-0.487,-3.316,0.898,133.000
-0.499,-3.318,0.899,133.000
-0.510,-3.317,0.899,131.000
-0.519,-3.298,0.894,134.000
-0.529,-3.288,0.892,134.000
-0.541,-3.286,0.892,135.000
-0.552,-3.283,0.892,132.000
-0.564,-3.282,0.892,134.000
-0.571,-3.263,0.888,132.000
-0.581,-3.250,0.885,133.000
-0.593,-3.254,0.886,134.000
-0.604,-3.248,0.885,134.000
-0.615,-3.246,0.885,134.000
-0.623,-3.228,0.881,134.000
-0.633,-3.217,0.878,133.000
-0.645,-3.216,0.879,134.000
-0.656,-3.216,0.879,133.000
-0.666,-3.210,0.878,133.000
-0.676,-3.198,0.876,134.000
-0.687,-3.192,0.875,134.000
-0.695,-3.180,0.872,133.000
-0.707,-3.181,0.873,133.000
-0.720,-3.184,0.875,135.000
-0.727,-3.165,0.870,132.000
-0.735,-3.147,0.866,131.000
-0.747,-3.152,0.868,131.000
-0.756,-3.146,0.867,132.000
-0.771,-3.157,0.871,135.000
-0.777,-3.133,0.865,133.000
-0.788,-3.127,0.864,131.000
-0.799,-3.124,0.864,133.000
-0.810,-3.121,0.864,133.000
-0.818,-3.115,0.863,132.000
-0.828,-3.104,0.861,133.000
-0.835,-3.092,0.858,130.000
-0.849,-3.096,0.860,130.000
-0.860,-3.096,0.861,131.000
-0.872,-3.098,0.862,131.000
-0.878,-3.078,0.858,129.000
-0.893,-3.088,0.861,134.000
-0.898,-3.070,0.857,132.000
-0.909,-3.067,0.857,132.000
-0.922,-3.069,0.859,130.000
-0.929,-3.053,0.855,131.000
-0.937,-3.043,0.853,131.000
-0.948,-3.041,0.854,130.000
-0.960,-3.042,0.855,130.000
-0.977,-3.058,0.860,134.000
-0.980,-3.029,0.853,132.000
-0.988,-3.018,0.851,132.000
-0.999,-3.019,0.852,132.000
-1.011,-3.019,0.853,131.000
-1.020,-3.016,0.853,131.000
-1.027,-2.999,0.849,133.000
-1.038,-2.995,0.849,132.000
-1.048,-2.988,0.848,133.000
-1.060,-2.992,0.850,132.000
-1.070,-2.984,0.849,133.000
-1.077,-2.976,0.848,134.000
-1.085,-2.964,0.846,134.000
-1.095,-2.963,0.846,133.000
-1.108,-2.966,0.848,133.000
-1.117,-2.958,0.847,131.000
-1.125,-2.947,0.845,133.000
-1.129,-2.929,0.841,131.000
-1.160,-2.977,0.856,28.000
-1.202,-3.050,0.878,30.000
-1.247,-3.132,0.903,28.000
-1.280,-3.183,0.919,29.000
-1.326,-3.267,0.945,31.000
-1.371,-3.342,0.968,29.000
-1.424,-3.437,0.997,29.000
-1.475,-3.525,1.024,27.000
-1.529,-3.620,1.053,41.000
-1.596,-3.746,1.091,70.000
-1.623,-3.771,1.100,133.000
-1.636,-3.767,1.100,136.000
-1.651,-3.765,1.102,135.000
-1.660,-3.751,1.099,137.000
-1.669,-3.736,1.096,138.000
-1.685,-3.737,1.098,138.000
-1.700,-3.734,1.099,136.000
-1.713,-3.729,1.099,138.000
-1.723,-3.715,1.097,138.000
-1.731,-3.701,1.095,137.000
-1.746,-3.698,1.096,137.000
-1.761,-3.697,1.097,138.000
-1.776,-3.694,1.098,138.000
-1.781,-3.675,1.094,139.000
-1.791,-3.662,1.092,138.000
-1.810,-3.667,1.096,140.000
-1.823,-3.659,1.095,138.000
-1.833,-3.651,1.095,137.000
-1.842,-3.636,1.092,139.000
-1.853,-3.626,1.091,139.000
-1.868,-3.623,1.092,138.000
-1.882,-3.620,1.093,139.000
-1.897,-3.619,1.095,137.000
-1.903,-3.602,1.092,140.000
-1.916,-3.594,1.091,139.000
-1.928,-3.587,1.091,138.000
-1.945,-3.587,1.093,139.000
-1.963,-3.592,1.097,140.000
-1.967,-3.570,1.092,139.000
-1.974,-3.553,1.089,139.000
-1.989,-3.549,1.090,139.000
-2.004,-3.550,1.092,139.000
-2.021,-3.549,1.094,139.000
-2.025,-3.529,1.090,139.000
-2.035,-3.518,1.089,139.000
-2.048,-3.515,1.090,138.000
-2.067,-3.518,1.093,138.000
-2.078,-3.507,1.092,139.000
-2.089,-3.498,1.092,140.000
-2.096,-3.482,1.089,139.000
-2.113,-3.481,1.091,139.000
-2.129,-3.481,1.093,139.000
-2.144,-3.478,1.095,139.000
-2.149,-3.457,1.091,138.000
-2.164,-3.455,1.092,140.000
-2.173,-3.446,1.092,139.000
-2.190,-3.445,1.094,138.000
-2.202,-3.437,1.094,139.000
-2.210,-3.423,1.092,139.000
-2.222,-3.417,1.092,140.000
-2.237,-3.412,1.093,140.000
-2.254,-3.415,1.096,140.000
-2.265,-3.405,1.096,138.000
-2.277,-3.397,1.096,139.000
-2.282,-3.377,1.092,137.000
-2.296,-3.375,1.094,138.000
-2.312,-3.373,1.096,139.000
-2.328,-3.372,1.098,138.000
-2.333,-3.352,1.094,139.000
-2.344,-3.344,1.094,139.000
-2.359,-3.339,1.095,139.000
-2.372,-3.334,1.096,139.000
-2.388,-3.332,1.098,139.000
-2.392,-3.315,1.095,139.000
-2.406,-3.307,1.096,140.000
-2.420,-3.304,1.097,138.000
-2.438,-3.305,1.100,138.000
-2.453,-3.299,1.102,139.000
-2.458,-3.281,1.098,138.000
-2.469,-3.273,1.098,138.000
-2.483,-3.267,1.099,138.000
-2.502,-3.270,1.103,137.000
-2.515,-3.262,1.104,138.000
-2.518,-3.244,1.100,138.000
-2.531,-3.237,1.101,137.000
-2.544,-3.232,1.102,137.000
-2.562,-3.230,1.105,138.000
-2.573,-3.221,1.105,136.000
-2.583,-3.210,1.104,137.000
-2.591,-3.197,1.103,138.000
-2.607,-3.193,1.105,136.000
-2.623,-3.193,1.107,137.000
-2.631,-3.179,1.106,128.000
-2.639,-3.167,1.105,127.000
0,0,0,0
0,0,0,0
-4.836,-5.681,1.999,1.000
-4.851,-5.658,1.997,0.000
-4.867,-5.634,1.995,0.000
-4.884,-5.620,1.995,0.000
-4.903,-5.603,1.995,0.000
-4.923,-5.580,1.994,1.000
-4.944,-5.564,1.994,1.000
-4.954,-5.540,1.991,0.000
-4.977,-5.527,1.993,0.000
-4.995,-5.511,1.993,0.000
-5.017,-5.494,1.993,0.000
-5.033,-5.473,1.992,0.000
-5.057,-5.459,1.994,0.000
-5.069,-5.438,1.992,0.000
-5.090,-5.420,1.992,1.000
-5.111,-5.409,1.994,1.000
-5.132,-5.391,1.994,1.000
-5.136,-5.356,1.988,0.000
-5.644,-5.843,2.177,0.000
0,0,0,0
-5.905,-6.030,2.262,0.000
-5.923,-6.008,2.261,0.000
-21.365,-21.514,8.124,11.000
0,0,0,0
0,0,0,0
0,0,0,0
0,0,0,0
0,0,0,0
-5.424,-5.243,2.021,0.000
-5.398,-5.181,2.005,0.000
-5.338,-5.087,1.976,0.000
-5.314,-5.029,1.960,0.000
-5.237,-4.921,1.926,0.000
-5.241,-4.892,1.921,3.000
-5.264,-4.878,1.923,3.000
-5.300,-4.879,1.930,2.000
-5.321,-4.862,1.931,1.000
-5.340,-4.847,1.932,1.000
0,0,0,0
0,0,0,0
0,0,0,0
0,0,0,0
0,0,0,0
0,0,0,0
0,0,0,0
0,0,0,0
0,0,0,0
0,0,0,0
0,0,0,0
-4.636,-3.867,1.618,0.000
-4.586,-3.797,1.595,0.000
-4.570,-3.759,1.586,0.000
-4.552,-3.717,1.575,0.000
-4.505,-3.652,1.554,0.000
-4.471,-3.599,1.538,0.000
-4.459,-3.562,1.529,0.000
-4.448,-3.528,1.521,2.000
-4.447,-3.505,1.517,3.000
-4.466,-3.493,1.519,3.000
-4.499,-3.495,1.527,3.000
-4.515,-3.481,1.528,1.000
-4.542,-3.477,1.533,1.000
-4.544,-3.453,1.529,0.000
0,0,0,0
0,0,0,0
0,0,0,0
0,0,0,0
0,0,0,0
0,0,0,0
0,0,0,0
0,0,0,0
0,0,0,0
0,0,0,0
0,0,0,0
0,0,0,0
0,0,0,0
-4.115,-2.825,1.338,2.000
-4.109,-2.797,1.332,8.000
-4.072,-2.751,1.317,25.000
-4.096,-2.748,1.322,57.000
-4.120,-2.743,1.326,50.000
-4.134,-2.733,1.328,45.000
0,0,0,0
-4.156,-2.706,1.329,0.000
-4.161,-2.688,1.327,1.000
-4.194,-2.689,1.335,1.000
-4.240,-2.697,1.346,0.000
-2.780,-1.756,0.881,1.000
0,0,0,0
-2.787,-1.733,0.879,40.000
-2.782,-1.716,0.876,120.000
-2.758,-1.689,0.867,39.000
-2.744,-1.667,0.860,37.000
-2.717,-1.637,0.850,30.000
-2.667,-1.593,0.832,23.000
-2.687,-1.594,0.837,37.000
-2.697,-1.587,0.839,47.000
-2.693,-1.572,0.835,43.000
-2.675,-1.548,0.828,43.000
-2.662,-1.529,0.823,40.000
-2.655,-1.513,0.819,39.000
-2.647,-1.496,0.815,37.000
-2.636,-1.477,0.810,37.000
-2.621,-1.456,0.803,37.000
-2.619,-1.443,0.801,38.000
-2.613,-1.430,0.798,37.000
-2.607,-1.414,0.795,40.000
-2.584,-1.390,0.786,40.000
-2.564,-1.367,0.779,37.000
-2.561,-1.355,0.776,60.000
-2.556,-1.340,0.773,47.000
-2.553,-1.329,0.771,46.000
-2.529,-1.304,0.762,45.000
-2.520,-1.289,0.758,43.000
-2.524,-1.280,0.758,45.000
-2.515,-1.264,0.754,44.000
-2.514,-1.253,0.753,45.000
-2.494,-1.232,0.745,43.000
-2.485,-1.216,0.741,45.000
-2.477,-1.202,0.738,46.000
-2.472,-1.189,0.735,44.000
-2.464,-1.175,0.731,46.000
-2.446,-1.155,0.725,45.000
-2.425,-1.135,0.717,45.000
-2.425,-1.125,0.716,43.000
-2.442,-1.122,0.720,48.000
-2.419,-1.102,0.712,43.000
-2.414,-1.089,0.710,43.000
-2.407,-1.076,0.707,43.000
-2.404,-1.066,0.705,41.000
-2.402,-1.054,0.703,40.000
-2.395,-1.042,0.700,40.000
-2.381,-1.025,0.695,41.000
-2.367,-1.010,0.689,50.000
-2.354,-0.995,0.685,30.000
-2.365,-0.989,0.687,15.000
-2.385,-0.987,0.692,6.000
-3.963,-1.625,1.148,2.000
-3.979,-1.615,1.151,2.000
-3.988,-1.603,1.152,2.000
-4.022,-1.601,1.160,2.000
-4.024,-1.585,1.159,2.000
-4.055,-1.580,1.166,2.000
-4.068,-1.570,1.168,2.000
-4.081,-1.558,1.170,2.000
-4.102,-1.550,1.175,2.000
-4.111,-1.536,1.176,0.000
-2.248,-0.833,0.642,0.000
-2.260,-0.828,0.645,15.000
-2.258,-0.818,0.643,53.000
-2.255,-0.808,0.642,48.000
-2.249,-0.797,0.639,48.000
-2.232,-0.782,0.634,50.000
-2.220,-0.769,0.629,50.000
-2.217,-0.759,0.628,48.000
-2.212,-0.749,0.626,48.000
-2.209,-0.739,0.624,47.000
-2.199,-0.728,0.621,48.000
-2.187,-0.715,0.617,48.000
-2.182,-0.706,0.614,48.000
-2.184,-0.698,0.614,48.000
-2.183,-0.690,0.613,48.000
-2.173,-0.678,0.610,50.000
-2.160,-0.666,0.606,50.000
-2.151,-0.655,0.603,50.000
-2.159,-0.649,0.604,46.000
-2.154,-0.638,0.602,54.000
-2.138,-0.626,0.597,52.000
-2.132,-0.617,0.595,52.000
-2.133,-0.609,0.594,55.000
-2.133,-0.600,0.594,54.000
-2.127,-0.591,0.592,54.000
-2.118,-0.581,0.589,56.000
-2.111,-0.570,0.586,60.000
-2.106,-0.561,0.584,58.000
-2.104,-0.553,0.583,58.000
-2.106,-0.546,0.583,58.000
-2.089,-0.534,0.578,60.000
-2.080,-0.523,0.575,60.000
-2.074,-0.515,0.573,60.000
-2.079,-0.508,0.574,56.000
-2.075,-0.500,0.572,58.000
-2.068,-0.490,0.569,63.000
-2.052,-0.479,0.565,60.000
-2.050,-0.471,0.564,58.000
-2.054,-0.464,0.564,56.000
-2.056,-0.457,0.564,63.000
-2.044,-0.447,0.561,60.000
-2.030,-0.437,0.556,58.000
-2.030,-0.430,0.556,56.000
-2.026,-0.421,0.554,60.000
-2.035,-0.416,0.556,58.000
-2.011,-0.404,0.550,56.000
-2.005,-0.395,0.548,56.000
-2.003,-0.387,0.547,52.000
-2.000,-0.380,0.546,54.000
-2.002,-0.373,0.546,54.000
-1.986,-0.362,0.541,48.000
-1.978,-0.354,0.538,36.000
-1.981,-0.348,0.539,14.000
-1.993,-0.343,0.542,9.000
-1.991,-0.335,0.541,7.000
-1.981,-0.326,0.538,7.000
-1.959,-0.316,0.532,6.000
-1.954,-0.308,0.530,3.000
-1.978,-0.305,0.536,2.000
-1.966,-0.296,0.533,1.000
-1.957,-0.288,0.530,0.000
0,0,0,0
0,0,0,0
0,0,0,0
0,0,0,0
0,0,0,0
0,0,0,0
0,0,0,0
0,0,0,0
0,0,0,0
0,0,0,0
0,0,0,0
0,0,0,0
0,0,0,0
0,0,0,0
0,0,0,0
0,0,0,0
0,0,0,0
0,0,0,0
0,0,0,0
0,0,0,0
0,0,0,0
0,0,0,0
0,0,0,0
0,0,0,0
0,0,0,0
0,0,0,0
0,0,0,0
0,0,0,0
0,0,0,0
0,0,0,0
0,0,0,0
0,0,0,0
0,0,0,0
0,0,0,0
0,0,0,0
0,0,0,0
0,0,0,0
0,0,0,0
0,0,0,0
0,0,0,0
0,0,0,0
0,0,0,0
0,0,0,0
0,0,0,0
0,0,0,0
0,0,0,0
0,0,0,0
0,0,0,0
0,0,0,0
0,0,0,0
0,0,0,0
0,0,0,0
0,0,0,0
0,0,0,0
0,0,0,0
0,0,0,0
0,0,0,0
0,0,0,0
0,0,0,0
0,0,0,0
0,0,0,0
0,0,0,0
0,0,0,0
-0.485,0.037,0.130,7.000
0,0,0,0
0,0,0,0
0,0,0,0
-0.500,0.045,0.135,7.000
-0.500,0.047,0.135,7.000
0,0,0,0
0,0,0,0
-0.480,0.050,0.129,7.000
0,0,0,0
0,0,0,0
-0.480,0.055,0.129,7.000
0,0,0,0
0,0,0,0
-0.521,0.065,0.141,6.000
-0.498,0.064,0.135,7.000
-0.498,0.066,0.135,7.000
0,0,0,0
-0.520,0.072,0.141,6.000
-0.478,0.068,0.129,7.000
-0.520,0.076,0.141,6.000
-0.478,0.072,0.129,7.000
0,0,0,0
-0.477,0.075,0.129,7.000
-0.553,0.089,0.150,6.000
-0.477,0.078,0.129,7.000
-0.476,0.080,0.129,7.000
-0.495,0.085,0.135,7.000
0,0,0,0
-0.475,0.085,0.129,7.000
-0.532,0.097,0.145,6.000
-0.589,0.110,0.160,5.000
-0.493,0.094,0.135,7.000
-0.520,0.100,0.142,6.000
-0.588,0.116,0.160,5.000
-0.538,0.108,0.147,6.000
-0.519,0.106,0.142,6.000
-0.535,0.111,0.146,6.000
-0.490,0.103,0.134,7.000
-0.535,0.115,0.146,6.000
-0.534,0.117,0.146,6.000
-0.534,0.119,0.146,6.000
-0.488,0.110,0.134,7.000
-0.582,0.134,0.160,5.000
-0.581,0.136,0.160,5.000
-0.532,0.126,0.146,6.000
-0.580,0.140,0.160,5.000
-0.486,0.119,0.134,7.000
-0.531,0.132,0.146,6.000
-0.579,0.146,0.160,5.000
-0.530,0.135,0.146,6.000
-0.578,0.150,0.160,5.000
-0.577,0.152,0.160,5.000
-0.577,0.154,0.160,5.000
-0.576,0.156,0.160,5.000
-0.576,0.158,0.160,5.000
-0.575,0.160,0.160,5.000
-0.526,0.148,0.146,6.000
-0.574,0.164,0.160,5.000
-0.573,0.166,0.160,5.000
-0.573,0.168,0.160,5.000
-0.572,0.170,0.160,5.000
-0.572,0.171,0.160,5.000
-0.571,0.174,0.160,5.000
-0.571,0.176,0.160,5.000
-0.570,0.178,0.160,5.000
-0.569,0.179,0.160,5.000
-0.569,0.181,0.160,5.000
-0.531,0.172,0.150,6.000
-0.569,0.186,0.160,5.000
-0.569,0.188,0.160,5.000
-0.568,0.190,0.160,5.000
-0.567,0.192,0.160,5.000
-0.567,0.194,0.160,5.000
-0.566,0.196,0.160,5.000
-0.565,0.198,0.160,5.000
-0.565,0.200,0.160,5.000
-0.564,0.202,0.160,5.000
-0.563,0.204,0.160,5.000
-0.610,0.223,0.174,5.000
-0.562,0.207,0.160,5.000
-0.561,0.210,0.160,5.000
-0.560,0.212,0.160,5.000
0,0,0,0
-0.559,0.215,0.160,5.000
-0.558,0.217,0.160,5.000
0,0,0,0
0,0,0,0
0,0,0,0
0,0,0,0
0,0,0,0
0,0,0,0
0,0,0,0
0,0,0,0
-1.948,0.830,0.567,0.000
-1.965,0.845,0.573,6.000
-1.965,0.854,0.574,11.000
-1.946,0.853,0.569,23.000
-1.936,0.856,0.567,40.000
-1.928,0.861,0.566,56.000
-1.923,0.867,0.565,63.000
-1.899,0.865,0.559,70.000
-1.891,0.868,0.557,66.000
-1.893,0.877,0.559,70.000
-1.888,0.883,0.559,68.000
-1.894,0.894,0.561,70.000
-1.882,0.896,0.559,76.000
-1.874,0.900,0.557,70.000
-1.876,0.909,0.559,76.000
-1.878,0.918,0.560,78.000
-1.876,0.925,0.561,76.000
-1.866,0.929,0.559,66.000
-1.860,0.933,0.557,73.000
-1.860,0.941,0.559,76.000
-1.860,0.949,0.560,76.000
-1.870,0.963,0.564,81.000
-1.910,0.992,0.577,78.000
0,0,0,0
0,0,0,0
-6.715,3.580,2.039,0.000
-6.687,3.591,2.034,0.000
-6.661,3.607,2.030,0.000
-6.644,3.630,2.029,0.000
-6.641,3.660,2.032,0.000
-6.625,3.680,2.031,0.000
-6.625,3.712,2.035,0.000
-6.603,3.728,2.032,0.000
-6.577,3.746,2.028,0.000
-6.574,3.771,2.031,0.000
-6.558,3.794,2.030,0.000
-6.559,3.824,2.034,0.000
-6.542,3.846,2.033,0.000
-6.530,3.866,2.033,0.000
-6.516,3.889,2.033,0.000
-6.505,3.915,2.034,0.000
-6.492,3.940,2.035,0.000
-6.473,3.957,2.033,0.000
-6.447,3.973,2.029,0.000
-6.456,4.006,2.036,0.000
-6.422,4.017,2.030,0.000
-6.439,4.058,2.039,0.000
-6.412,4.072,2.035,0.000
-6.385,4.090,2.032,0.000
-6.380,4.118,2.035,0.000
-6.367,4.139,2.035,0.000
-6.362,4.168,2.038,0.000
-6.342,4.185,2.036,0.000
-6.315,4.200,2.032,0.000
-6.308,4.226,2.034,0.000
-6.303,4.256,2.038,0.000
-6.289,4.277,2.038,0.000
-6.267,4.296,2.036,0.000
-6.253,4.316,2.036,0.000
-6.236,4.337,2.035,0.000
-6.223,4.359,2.036,0.000
-6.223,4.393,2.041,0.000
-6.191,4.401,2.035,0.000
-6.182,4.427,2.037,0.000
-6.168,4.450,2.038,0.000
-6.148,4.470,2.037,0.000
-6.138,4.494,2.038,0.000
-6.129,4.520,2.041,0.000
-6.096,4.529,2.035,0.000
-6.102,4.569,2.043,0.000
-6.080,4.580,2.039,0.000
-6.064,4.601,2.039,0.000
-6.056,4.630,2.043,0.000
-6.034,4.646,2.041,0.000
-6.007,4.659,2.037,0.000
-6.007,4.693,2.043,0.000
-5.982,4.706,2.039,0.000
-5.953,4.718,2.035,0.000
-5.949,4.749,2.039,0.000
-5.931,4.770,2.039,0.000
-5.917,4.788,2.039,0.000
-5.908,4.817,2.043,0.000
-5.886,4.832,2.041,0.000
-5.863,4.848,2.038,0.000
-5.849,4.870,2.039,0.000
-5.826,4.887,2.037,0.000
-5.829,4.924,2.045,0.000
-5.800,4.935,2.041,0.000
-5.781,4.951,2.039,0.000
-5.767,4.976,2.041,0.000
-5.754,5.000,2.043,0.000
-5.742,5.025,2.045,0.000
-5.713,5.033,2.040,0.000
-5.694,5.054,2.040,0.000
-5.685,5.081,2.043,0.000
-5.652,5.087,2.037,0.000
-5.668,5.135,2.049,0.000
-5.648,5.154,2.049,3.000
-5.627,5.171,2.048,3.000
-5.615,5.196,2.050,3.000
-5.603,5.220,2.052,3.000
-5.590,5.246,2.054,3.000
-5.570,5.261,2.053,2.000
-7.523,7.160,2.783,0.000
-7.507,7.188,2.785,1.000
-7.482,7.217,2.785,0.000
-7.466,7.253,2.789,1.000
-7.445,7.285,2.791,0.000
-7.426,7.313,2.793,0.000
-7.412,7.352,2.797,0.000
-5.401,5.393,2.045,0.000
-5.396,5.426,2.050,0.000
-5.366,5.434,2.046,0.000
-5.359,5.467,2.051,1.000
-5.340,5.480,2.050,1.000
-5.323,5.500,2.051,1.000
-5.303,5.519,2.051,0.000
-5.270,5.524,2.046,1.000
-5.259,5.550,2.049,1.000
-5.236,5.564,2.047,0.000
-5.225,5.593,2.051,0.000
-5.204,5.610,2.050,0.000
-5.177,5.622,2.048,0.000
-5.157,5.640,2.048,0.000
-5.138,5.652,2.047,0.000
-5.120,5.674,2.048,0.000
-5.101,5.691,2.048,0.000
-5.070,5.698,2.044,0.000
-5.056,5.721,2.046,0.000
-5.040,5.745,2.048,0.000
-5.029,5.770,2.051,0.000
-5.017,5.800,2.055,0.000
-5.001,5.820,2.056,0.000
-4.967,5.824,2.051,0.000
-4.941,5.830,2.048,0.000
-4.916,5.842,2.046,0.000
-4.907,5.874,2.051,0.000
-4.900,5.910,2.057,0.000
-4.876,5.920,2.055,0.000
-4.848,5.928,2.052,0.000
-4.841,5.963,2.058,0.000
-1.914,2.375,0.817,1.000
-1.909,2.384,0.818,5.000
-1.891,2.379,0.814,4.000
-1.865,2.365,0.807,2.000
-1.830,2.336,0.795,2.000
-1.795,2.309,0.784,1.000
-1.773,2.297,0.777,1.000
-1.742,2.272,0.767,1.000
-1.716,2.255,0.759,1.000
-1.708,2.259,0.759,1.000
-1.681,2.241,0.751,1.000
-1.658,2.225,0.743,1.000
-1.626,2.200,0.733,2.000
-1.601,2.180,0.725,1.000
-1.584,2.173,0.721,1.000
-1.599,2.210,0.731,1.000
-1.575,2.194,0.724,1.000
-1.544,2.164,0.712,1.000
-1.429,2.018,0.663,1.000
-1.411,2.007,0.657,3.000
-1.408,2.019,0.659,1.000
-1.384,1.998,0.651,3.000
-1.357,1.974,0.642,3.000
-1.358,1.990,0.645,13.000
-1.344,1.985,0.642,36.000
-1.330,1.978,0.639,33.000
-1.307,1.959,0.631,33.000
-1.294,1.956,0.628,37.000
-1.286,1.959,0.628,71.000
-1.280,1.965,0.628,93.000
-1.267,1.960,0.625,44.000
-1.247,1.941,0.618,37.000
-1.238,1.942,0.617,36.000
-1.223,1.933,0.613,36.000
-1.210,1.928,0.610,33.000
-1.200,1.927,0.608,34.000
-1.180,1.910,0.601,39.000
-1.165,1.901,0.597,39.000
-1.153,1.897,0.595,41.000
-1.143,1.894,0.593,41.000
-1.130,1.888,0.590,41.000
-1.114,1.873,0.584,42.000
-1.101,1.867,0.581,43.000
-1.088,1.861,0.578,43.000
-1.074,1.852,0.574,44.000
-1.068,1.855,0.574,44.000
-1.050,1.839,0.567,43.000
-1.034,1.825,0.562,44.000
-1.032,1.838,0.565,74.000
-1.024,1.838,0.564,75.000
-1.014,1.834,0.562,68.000
-1.015,1.852,0.566,73.000
-1.007,1.854,0.565,86.000
-1.007,1.869,0.569,81.000
-1.005,1.881,0.571,78.000
-1.003,1.891,0.574,78.000
-0.997,1.896,0.574,81.000
-0.988,1.895,0.573,78.000
-0.987,1.910,0.576,81.000
-0.985,1.922,0.579,78.000
-0.983,1.934,0.581,81.000
-0.972,1.929,0.579,78.000
-0.966,1.936,0.580,78.000
-0.964,1.948,0.582,73.000
-0.960,1.956,0.584,70.000
-0.957,1.968,0.586,73.000
-0.948,1.966,0.585,63.000
-0.942,1.970,0.585,61.000
-0.940,1.985,0.589,53.000
-0.938,1.997,0.591,42.000
-0.936,2.011,0.594,35.000
-0.925,2.007,0.592,20.000
-0.919,2.012,0.593,12.000
-0.918,2.028,0.596,7.000
-0.913,2.036,0.598,6.000
-0.908,2.044,0.599,3.000
-0.902,2.049,0.600,2.000
-0.891,2.046,0.598,1.000
-0.883,2.047,0.597,0.000
-0.881,2.061,0.600,0.000
0,0,0,0
0,0,0,0
0,0,0,0
0,0,0,0
0,0,0,0
0,0,0,0
0,0,0,0
0,0,0,0
0,0,0,0
0,0,0,0
0,0,0,0
0,0,0,0
0,0,0,0
0,0,0,0
0,0,0,0
0,0,0,0
0,0,0,0
0,0,0,0
0,0,0,0
0,0,0,0
0,0,0,0
0,0,0,0
0,0,0,0
0,0,0,0
0,0,0,0
0,0,0,0
0,0,0,0
0,0,0,0
0,0,0,0
0,0,0,0
0,0,0,0
0,0,0,0
0,0,0,0
0,0,0,0
0,0,0,0
0,0,0,0
0,0,0,0
0,0,0,0
0,0,0,0
0,0,0,0
0,0,0,0
0,0,0,0
0,0,0,0
0,0,0,0
0,0,0,0
0,0,0,0
0,0,0,0
0,0,0,0
0,0,0,0
0,0,0,0
0,0,0,0
0,0,0,0
0,0,0,0
0,0,0,0
0,0,0,0
0,0,0,0
0,0,0,0
0,0,0,0
0,0,0,0
0,0,0,0
0,0,0,0
0,0,0,0
0,0,0,0
0,0,0,0
0,0,0,0
0,0,0,0
0,0,0,0
0,0,0,0
0,0,0,0
0,0,0,0
0,0,0,0
0,0,0,0
0,0,0,0
0,0,0,0
0,0,0,0
0,0,0,0
0,0,0,0
0,0,0,0
0,0,0,0
0,0,0,0
0,0,0,0
0,0,0,0
0,0,0,0
0,0,0,0
0,0,0,0
0,0,0,0
0,0,0,0
0,0,0,0
0,0,0,0
0,0,0,0
0,0,0,0
0,0,0,0
0,0,0,0
0,0,0,0
0,0,0,0
0,0,0,0
0,0,0,0
0,0,0,0
0,0,0,0
0,0,0,0
0,0,0,0
0,0,0,0
0,0,0,0
0,0,0,0
0,0,0,0
0,0,0,0
0,0,0,0
0,0,0,0
0,0,0,0
0,0,0,0
0,0,0,0
0,0,0,0
0,0,0,0
0,0,0,0
0,0,0,0
0,0,0,0
0,0,0,0
0,0,0,0
0,0,0,0
0,0,0,0
0,0,0,0
0,0,0,0
0,0,0,0
0,0,0,0
0,0,0,0
0,0,0,0
0,0,0,0
0,0,0,0
0,0,0,0
0,0,0,0
0,0,0,0
0,0,0,0
0,0,0,0
0,0,0,0
0,0,0,0
0,0,0,0
0,0,0,0
0,0,0,0
0,0,0,0
0,0,0,0
0,0,0,0
0,0,0,0
0,0,0,0
0,0,0,0
0,0,0,0
0,0,0,0
0,0,0,0
0,0,0,0
0,0,0,0
0,0,0,0
0,0,0,0
0,0,0,0
0,0,0,0
0,0,0,0
0,0,0,0
0,0,0,0
0,0,0,0
0,0,0,0
0,0,0,0
0,0,0,0
0,0,0,0
0,0,0,0
0,0,0,0
0,0,0,0
0,0,0,0
0,0,0,0
0,0,0,0
0,0,0,0
0,0,0,0
0,0,0,0
0,0,0,0
0,0,0,0
0,0,0,0
0,0,0,0
0,0,0,0
0,0,0,0
0,0,0,0
0,0,0,0
0,0,0,0
0,0,0,0
0,0,0,0
0,0,0,0
0,0,0,0
0,0,0,0
0,0,0,0
0,0,0,0
0,0,0,0
0,0,0,0
0,0,0,0
0,0,0,0
0,0,0,0
0,0,0,0
0,0,0,0
0,0,0,0
0,0,0,0
0,0,0,0
0,0,0,0
0,0,0,0
0,0,0,0
0,0,0,0
0,0,0,0
0,0,0,0
0,0,0,0
0,0,0,0
0,0,0,0
0,0,0,0
0,0,0,0
0,0,0,0
2.871,8.626,2.099,0.000
2.896,8.601,2.095,0.000
2.929,8.598,2.097,0.000
2.955,8.577,2.094,0.000
2.982,8.559,2.092,0.000
2.998,8.514,2.084,0.000
3.030,8.509,2.085,0.000
3.067,8.519,2.090,1.000
3.091,8.493,2.087,2.000
3.111,8.465,2.082,4.000
3.142,8.458,2.083,4.000
3.173,8.446,2.083,4.000
3.205,8.442,2.085,6.000
3.233,8.434,2.085,6.000
3.260,8.417,2.084,7.000
3.287,8.401,2.083,8.000
3.317,8.391,2.083,11.000
3.352,8.389,2.086,13.000
3.382,8.379,2.086,15.000
3.405,8.357,2.083,16.000
3.427,8.327,2.079,19.000
3.459,8.325,2.081,23.000
3.488,8.315,2.082,28.000
3.519,8.306,2.083,30.000
3.542,8.281,2.079,33.000
3.573,8.268,2.079,35.000
3.605,8.263,2.081,36.000
3.634,8.254,2.082,17.000
3.663,8.242,2.082,34.000
3.693,8.237,2.084,45.000
3.716,8.211,2.081,45.000
3.745,8.198,2.081,45.000
3.775,8.189,2.082,45.000
3.805,8.179,2.083,45.000
3.830,8.158,2.081,44.000
3.857,8.142,2.080,45.000
3.887,8.132,2.081,45.000
3.917,8.121,2.082,46.000
3.947,8.111,2.083,44.000
3.970,8.087,2.080,45.000
3.999,8.073,2.080,45.000
4.028,8.067,2.082,45.000
4.054,8.050,2.081,44.000
4.088,8.044,2.083,42.000
4.110,8.017,2.080,46.000
4.138,8.007,2.081,45.000
4.166,7.992,2.081,43.000
4.197,7.985,2.083,45.000
4.229,7.977,2.084,45.000
4.250,7.950,2.081,47.000
4.276,7.932,2.080,47.000
4.305,7.923,2.082,46.000
4.336,7.913,2.083,48.000
4.365,7.901,2.084,47.000
4.384,7.870,2.080,44.000
4.413,7.857,2.080,47.000
4.441,7.843,2.081,46.000
4.469,7.829,2.081,48.000
4.499,7.818,2.083,46.000
4.523,7.796,2.081,45.000
4.548,7.777,2.080,46.000
4.578,7.766,2.081,47.000
4.608,7.755,2.083,46.000
4.635,7.739,2.083,45.000
4.659,7.718,2.081,47.000
4.682,7.697,2.080,46.000
4.711,7.684,2.081,46.000
4.741,7.674,2.083,46.000
4.774,7.667,2.085,43.000
4.792,7.633,2.081,44.000
4.817,7.613,2.080,46.000
4.842,7.597,2.080,45.000
4.876,7.592,2.083,47.000
4.901,7.573,2.083,46.000
4.924,7.551,2.081,47.000
4.946,7.527,2.079,47.000
4.973,7.510,2.079,47.000
5.000,7.497,2.080,47.000
5.030,7.486,2.082,49.000
5.054,7.465,2.081,49.000
5.076,7.441,2.079,48.000
5.107,7.431,2.082,46.000
5.132,7.412,2.081,47.000
5.165,7.403,2.084,48.000
5.184,7.376,2.081,48.000
5.207,7.354,2.080,48.000
5.235,7.339,2.081,47.000
5.260,7.326,2.082,48.000
5.290,7.314,2.084,32.000
5.313,7.288,2.082,46.000
5.331,7.260,2.079,48.000
5.359,7.244,2.080,49.000
5.389,7.232,2.082,50.000
5.413,7.214,2.082,48.000
5.433,7.189,2.080,49.000
5.453,7.164,2.079,48.000
5.483,7.151,2.080,48.000
5.509,7.131,2.080,48.000
5.538,7.116,2.082,46.000
5.554,7.086,2.079,48.000
5.575,7.062,2.077,46.000
5.605,7.051,2.079,49.000
5.634,7.037,2.081,48.000
5.662,7.025,2.083,49.000
5.682,6.999,2.081,50.000
5.700,6.972,2.079,46.000
5.731,6.959,2.081,48.000
5.762,6.943,2.083,48.000
5.791,6.929,2.085,48.000
5.812,6.904,2.083,36.000
5.830,6.876,2.081,46.000
5.851,6.853,2.080,48.000
5.877,6.836,2.081,48.000
5.909,6.824,2.084,48.000
5.920,6.788,2.079,50.000
5.937,6.760,2.077,46.000
5.970,6.750,2.080,49.000
5.995,6.733,2.081,49.000
6.023,6.718,2.083,48.000
6.035,6.686,2.079,49.000
6.058,6.665,2.079,47.000
6.083,6.643,2.079,47.000
6.109,6.624,2.080,47.000
6.134,6.606,2.081,47.000
6.152,6.579,2.079,48.000
6.172,6.554,2.079,49.000
6.198,6.536,2.079,48.000
6.225,6.521,2.081,48.000
6.250,6.502,2.082,48.000
6.260,6.468,2.078,46.000
6.289,6.453,2.080,41.000
6.311,6.431,2.080,48.000
6.337,6.412,2.081,48.000
6.357,6.386,2.080,48.000
6.374,6.358,2.079,49.000
6.398,6.340,2.079,47.000
6.417,6.315,2.079,48.000
6.446,6.302,2.081,48.000
6.463,6.274,2.079,50.000
6.486,6.250,2.079,50.000
6.503,6.223,2.078,59.000
6.520,6.198,2.077,61.000
6.551,6.184,2.080,63.000
6.574,6.163,2.080,61.000
6.587,6.132,2.078,52.000
6.607,6.107,2.077,52.000
6.627,6.083,2.077,48.000
6.657,6.068,2.079,48.000
6.678,6.044,2.079,47.000
6.689,6.014,2.077,47.000
6.710,5.991,2.077,48.000
6.736,5.974,2.079,39.000
6.819,6.006,2.098,142.000
6.844,5.983,2.099,129.000
6.858,5.953,2.097,126.000
6.857,5.915,2.091,65.000
6.879,5.892,2.091,55.000
6.926,5.886,2.098,55.000
6.961,5.874,2.103,57.000
6.973,5.842,2.100,61.000
6.963,5.793,2.091,55.000
6.963,5.756,2.086,46.000
6.977,5.727,2.084,40.000
6.903,5.626,2.056,38.000
6.917,5.597,2.054,38.000
7.009,5.629,2.075,14.000
7.038,5.612,2.078,12.000
7.063,5.592,2.080,13.000
7.095,5.577,2.083,11.000
7.099,5.540,2.079,11.000
7.121,5.518,2.080,11.000
7.136,5.490,2.079,10.000
7.160,5.468,2.080,13.000
7.183,5.447,2.081,37.000
7.195,5.416,2.079,55.000
7.206,5.385,2.077,47.000
7.224,5.359,2.077,49.000
7.244,5.339,2.078,49.000
7.266,5.316,2.079,47.000
7.276,5.283,2.076,47.000
7.291,5.255,2.075,48.000
7.313,5.232,2.076,47.000
7.337,5.211,2.078,48.000
7.356,5.185,2.078,48.000
7.364,5.152,2.075,48.000
7.381,5.128,2.075,50.000
7.394,5.099,2.074,46.000
7.424,5.080,2.077,47.000
7.445,5.056,2.078,50.000
7.455,5.027,2.076,48.000
7.469,4.998,2.075,48.000
7.492,4.976,2.076,46.000
7.507,4.948,2.076,50.000
7.537,4.932,2.079,50.000
7.543,4.898,2.076,52.000
7.549,4.863,2.073,59.000
7.535,4.817,2.065,17.000
7.500,4.759,2.051,17.000
7.455,4.695,2.034,51.000
7.418,4.633,2.019,61.000
7.389,4.580,2.007,68.000
7.351,4.523,1.993,68.000
7.320,4.468,1.980,66.000
7.298,4.420,1.970,62.000
7.270,4.368,1.958,105.000
7.230,4.313,1.944,105.000
7.231,4.280,1.940,136.000
7.254,4.256,1.942,135.000
7.296,4.246,1.949,136.000
7.313,4.222,1.949,135.000
7.339,4.203,1.953,136.000
7.370,4.188,1.957,135.000
7.408,4.176,1.963,131.000
7.436,4.159,1.967,135.000
7.457,4.137,1.969,132.000
7.485,4.118,1.972,136.000
7.525,4.106,1.979,137.000
7.549,4.083,1.981,133.000
7.592,4.073,1.989,137.000
7.609,4.049,1.990,136.000
7.637,4.030,1.994,137.000
7.674,4.017,2.000,136.000
7.713,4.003,2.006,135.000
7.742,3.984,2.010,132.000
7.766,3.962,2.013,132.000
7.794,3.942,2.016,135.000
7.829,3.925,2.022,136.000
7.863,3.908,2.027,136.000
7.905,3.895,2.034,136.000
7.918,3.867,2.034,123.000
7.970,3.858,2.044,47.000
8.012,3.844,2.052,31.000
8.052,3.828,2.058,31.000
8.089,3.810,2.064,33.000
8.104,3.782,2.065,37.000
8.137,3.767,2.070,41.000
8.175,3.750,2.076,59.000
8.186,3.719,2.076,55.000
8.196,3.689,2.075,51.000
8.210,3.662,2.075,52.000
8.214,3.629,2.073,50.000
8.232,3.603,2.074,52.000
8.246,3.575,2.075,49.000
8.262,3.548,2.076,49.000
6.289,2.675,1.578,35.000
6.261,2.636,1.568,114.000
6.267,2.612,1.567,22.000
6.242,2.579,1.559,9.000
0,0,0,0
6.244,2.529,1.555,102.000
6.211,2.491,1.545,108.000
6.199,2.459,1.540,105.000
6.182,2.428,1.533,105.000
6.170,2.399,1.528,102.000
6.142,2.364,1.519,37.000
6.128,2.334,1.514,102.000
6.111,2.303,1.508,102.000
6.099,2.274,1.503,105.000
6.083,2.244,1.497,102.000
6.059,2.211,1.489,105.000
6.029,2.176,1.480,37.000
6.021,2.150,1.476,102.000
6.007,2.121,1.471,102.000
6.002,2.099,1.468,102.000
5.975,2.065,1.459,108.000
5.952,2.034,1.452,111.000
5.937,2.006,1.447,105.000
5.920,1.977,1.441,102.000
5.914,1.953,1.438,105.000
5.898,1.922,1.432,34.000
5.875,1.892,1.425,102.000
5.869,1.870,1.422,102.000
5.857,1.843,1.418,102.000
5.841,1.816,1.412,102.000
5.768,1.771,1.393,8.000
5.762,1.748,1.390,6.000
3.775,1.131,0.910,4.000
0,0,0,0
3.425,1.000,0.824,69.000
0,0,0,0
3.417,0.972,0.820,8.000
3.426,0.962,0.822,7.000
3.435,0.951,0.823,6.000
3.442,0.940,0.824,6.000
3.443,0.928,0.823,6.000
3.454,0.918,0.825,8.000
0,0,0,0
3.466,0.895,0.826,114.000
3.466,0.881,0.826,104.000
0,0,0,0
3.464,0.857,0.824,6.000
3.484,0.849,0.828,6.000
3.477,0.834,0.826,6.000
3.493,0.825,0.829,6.000
3.494,0.813,0.828,16.000
3.486,0.798,0.826,114.000
3.498,0.788,0.828,109.000
3.508,0.777,0.830,118.000
3.511,0.765,0.830,43.000
5.421,1.161,1.280,49.000
5.421,1.141,1.279,121.000
5.397,1.118,1.272,126.000
5.385,1.096,1.269,123.000
5.381,1.075,1.267,123.000
5.362,1.052,1.262,124.000
5.350,1.030,1.258,124.000
5.339,1.009,1.254,119.000
5.334,0.989,1.253,121.000
5.326,0.968,1.250,122.000
5.311,0.946,1.245,122.000
5.291,0.923,1.240,126.000
5.282,0.903,1.237,124.000
5.280,0.884,1.236,127.000
5.264,0.862,1.231,129.000
5.238,0.839,1.225,124.000
5.225,0.818,1.221,126.000
5.213,0.798,1.217,126.000
5.213,0.779,1.217,129.000
5.199,0.758,1.213,126.000
5.186,0.738,1.209,123.000
5.169,0.717,1.205,122.000
5.164,0.698,1.203,123.000
5.162,0.680,1.202,124.000
5.153,0.660,1.199,124.000
5.132,0.639,1.194,123.000
5.121,0.621,1.191,128.000
5.107,0.601,1.187,127.000
5.106,0.583,1.186,128.000
5.088,0.563,1.182,127.000
5.069,0.543,1.177,126.000
5.051,0.524,1.172,124.000
5.042,0.504,1.170,126.000
5.039,0.486,1.169,126.000
5.039,0.469,1.168,128.000
5.019,0.450,1.163,126.000
5.002,0.430,1.159,124.000
5.003,0.412,1.159,126.000
4.991,0.394,1.156,127.000
4.988,0.376,1.155,128.000
4.970,0.357,1.150,128.000
4.952,0.338,1.146,129.000
4.949,0.321,1.145,130.000
4.939,0.303,1.142,129.000
4.930,0.285,1.140,131.000
4.906,0.267,1.134,130.000
4.893,0.250,1.131,131.000
4.884,0.233,1.129,130.000
4.891,0.214,1.130,131.000
4.870,0.196,1.125,130.000
4.859,0.181,1.123,130.000
4.848,0.163,1.120,129.000
4.836,0.147,1.117,127.000
4.835,0.130,1.117,126.000
4.834,0.112,1.116,128.000
4.818,0.095,1.113,128.000
4.807,0.078,1.110,129.000
4.799,0.061,1.108,130.000
4.796,0.044,1.107,129.000
4.792,0.027,1.106,130.000
4.771,0.012,1.101,132.000
4.751,-0.005,1.097,132.000
4.747,-0.022,1.096,133.000
4.743,-0.038,1.095,132.000
4.739,-0.055,1.094,133.000
4.715,-0.071,1.089,132.000
4.700,-0.088,1.085,132.000
4.701,-0.104,1.086,128.000
4.699,-0.120,1.085,133.000
4.691,-0.136,1.083,132.000
4.675,-0.152,1.080,132.000
4.662,-0.168,1.077,117.000
4.656,-0.184,1.076,16.000
4.647,-0.200,1.074,15.000
4.656,-0.216,1.076,25.000
4.667,-0.232,1.079,121.000
4.651,-0.249,1.075,123.000
4.642,-0.264,1.073,122.000
4.633,-0.279,1.072,122.000
4.632,-0.296,1.072,122.000
4.620,-0.311,1.069,123.000
4.607,-0.326,1.066,124.000
4.598,-0.342,1.064,124.000
4.597,-0.358,1.064,124.000
4.599,-0.374,1.065,126.000
4.575,-0.388,1.060,124.000
4.560,-0.401,1.057,128.000
4.555,-0.417,1.056,127.000
4.553,-0.434,1.056,127.000
4.548,-0.449,1.055,128.000
4.527,-0.463,1.051,129.000
4.498,-0.476,1.044,127.000
4.504,-0.492,1.046,128.000
4.498,-0.508,1.045,127.000
4.493,-0.521,1.044,129.000
4.479,-0.536,1.042,128.000
4.462,-0.550,1.038,128.000
4.458,-0.566,1.037,126.000
4.454,-0.581,1.037,127.000
4.448,-0.596,1.036,128.000
4.435,-0.609,1.033,128.000
4.425,-0.623,1.032,127.000
4.417,-0.638,1.030,126.000
4.415,-0.653,1.030,126.000
4.408,-0.668,1.029,124.000
4.398,-0.682,1.028,124.000
4.384,-0.695,1.025,123.000
4.382,-0.711,1.025,124.000
4.376,-0.725,1.024,124.000
4.373,-0.740,1.024,124.000
4.359,-0.753,1.021,124.000
4.351,-0.767,1.020,127.000
4.348,-0.783,1.020,127.000
4.341,-0.798,1.019,127.000
4.340,-0.812,1.019,126.000
4.324,-0.825,1.016,129.000
4.310,-0.838,1.014,129.000
4.303,-0.852,1.013,129.000
4.304,-0.868,1.014,127.000
4.305,-0.884,1.015,128.000
4.279,-0.894,1.009,129.000
4.264,-0.906,1.006,129.000
4.261,-0.921,1.006,129.000
4.261,-0.937,1.007,129.000
4.258,-0.952,1.007,129.000
4.236,-0.962,1.003,130.000
4.225,-0.974,1.001,128.000
4.214,-0.987,0.999,128.000
4.186,-0.996,0.993,26.000
4.183,-1.010,0.993,26.000
4.173,-1.024,0.992,29.000
4.175,-1.040,0.993,119.000
4.149,-1.049,0.988,36.000
4.160,-1.067,0.992,36.000
4.181,-1.088,0.997,43.000
7.283,-1.921,1.739,102.000
7.270,-1.947,1.738,108.000
7.256,-1.970,1.736,108.000
7.249,-1.994,1.736,111.000
7.242,-2.019,1.736,111.000
7.216,-2.039,1.731,111.000
7.198,-2.061,1.729,114.000
7.186,-2.086,1.728,114.000
7.179,-2.112,1.728,114.000
7.174,-2.136,1.728,116.000
7.144,-2.154,1.723,109.000
7.132,-2.179,1.722,116.000
7.115,-2.201,1.720,111.000
7.112,-2.226,1.720,111.000
7.104,-2.251,1.720,114.000
7.077,-2.270,1.716,114.000
7.062,-2.292,1.714,114.000
7.050,-2.315,1.713,111.000
7.042,-2.340,1.713,114.000
7.034,-2.364,1.713,111.000
7.015,-2.385,1.711,108.000
6.993,-2.405,1.707,102.000
6.987,-2.430,1.708,114.000
6.978,-2.455,1.708,111.000
6.973,-2.480,1.709,114.000
6.948,-2.499,1.705,102.000
0,0,0,0
3.922,-1.441,0.965,41.000
3.918,-1.456,0.965,40.000
3.929,-1.476,0.969,109.000
3.906,-1.483,0.965,128.000
3.897,-1.495,0.964,133.000
3.889,-1.507,0.963,132.000
3.887,-1.522,0.964,132.000
3.885,-1.537,0.965,132.000
