"X","Y","Z","Intensity"
3.533,-6.639,2.015,37.000
3.510,-6.654,2.016,36.000
3.489,-6.669,2.017,36.000
3.468,-6.687,2.018,43.000
3.427,-6.660,2.007,45.000
3.410,-6.686,2.011,21.000
3.401,-6.723,2.019,22.000
2.239,-4.468,1.339,45.000
2.209,-4.444,1.330,36.000
2.184,-4.435,1.325,30.000
2.186,-4.475,1.334,45.000
2.165,-4.470,1.331,27.000
2.165,-4.511,1.341,30.000
2.165,-4.554,1.351,63.000
2.152,-4.564,1.352,108.000
2.142,-4.586,1.356,115.000
2.134,-4.611,1.361,115.000
2.124,-4.633,1.366,112.000
2.109,-4.640,1.366,112.000
2.099,-4.661,1.370,109.000
2.085,-4.677,1.372,106.000
2.075,-4.697,1.376,112.000
2.064,-4.714,1.379,109.000
2.050,-4.727,1.381,106.000
2.038,-4.742,1.383,112.000
2.029,-4.768,1.388,109.000
2.020,-4.792,1.393,115.000
2.010,-4.817,1.399,115.000
1.994,-4.824,1.399,118.000
1.982,-4.845,1.403,118.000
1.974,-4.874,1.409,115.000
1.963,-4.899,1.414,115.000
1.955,-4.919,1.418,109.000
1.939,-4.933,1.420,112.000
1.925,-4.945,1.422,106.000
1.913,-4.966,1.426,106.000
1.904,-4.993,1.432,112.000
1.891,-5.014,1.436,115.000
1.877,-5.028,1.438,112.000
1.862,-5.042,1.440,118.000
1.854,-5.073,1.447,118.000
1.844,-5.102,1.454,115.000
1.832,-5.126,1.459,118.000
1.818,-5.144,1.462,115.000
1.806,-5.164,1.466,112.000
1.793,-5.185,1.470,109.000
1.781,-5.212,1.476,106.000
1.768,-5.233,1.480,103.000
1.752,-5.242,1.481,106.000
1.737,-5.261,1.485,109.000
1.728,-5.295,1.492,124.000
1.707,-5.295,1.491,30.000
1.694,-5.310,1.493,23.000
1.682,-5.342,1.501,55.000
1.668,-5.358,1.504,114.000
1.652,-5.376,1.507,124.000
1.642,-5.407,1.514,124.000
1.628,-5.433,1.520,122.000
1.612,-5.446,1.522,121.000
1.595,-5.459,1.524,122.000
1.583,-5.489,1.531,124.000
1.569,-5.515,1.536,122.000
1.561,-5.549,1.545,127.000
1.545,-5.566,1.548,121.000
1.535,-5.611,1.559,119.000
1.521,-5.640,1.565,118.000
1.501,-5.638,1.563,70.000
1.472,-5.606,1.553,57.000
1.443,-5.581,1.545,55.000
1.419,-5.565,1.539,54.000
1.396,-5.563,1.537,51.000
1.375,-5.559,1.534,51.000
1.352,-5.548,1.530,50.000
1.325,-5.523,1.522,51.000
1.303,-5.502,1.515,54.000
1.281,-5.500,1.513,54.000
1.257,-5.479,1.506,55.000
1.233,-5.469,1.502,55.000
1.206,-5.441,1.493,53.000
1.181,-5.423,1.487,52.000
1.162,-5.419,1.485,51.000
1.143,-5.429,1.487,57.000
1.122,-5.410,1.480,51.000
1.099,-5.391,1.474,51.000
1.076,-5.376,1.469,50.000
1.054,-5.367,1.465,54.000
1.034,-5.366,1.464,54.000
1.013,-5.357,1.461,55.000
0.989,-5.326,1.451,55.000
0.966,-5.309,1.446,54.000
0.945,-5.297,1.442,53.000
0.926,-5.296,1.441,52.000
0.906,-5.296,1.440,54.000
0.883,-5.272,1.432,48.000
0.862,-5.254,1.427,50.000
0.841,-5.240,1.422,46.000
0.822,-5.235,1.420,48.000
0.800,-5.219,1.415,54.000
0.780,-5.202,1.410,54.000
0.758,-5.182,1.403,52.000
0.738,-5.167,1.399,55.000
0.717,-5.157,1.395,54.000
0.699,-5.148,1.392,52.000
0.678,-5.135,1.388,53.000
0.658,-5.118,1.383,53.000
0.638,-5.109,1.380,53.000
0.622,-5.107,1.378,51.000
0.604,-5.107,1.378,50.000
0.583,-5.090,1.373,50.000
0.561,-5.069,1.367,50.000
0.545,-5.063,1.364,50.000
0.526,-5.053,1.361,51.000
0.507,-5.048,1.359,51.000
0.487,-5.034,1.355,57.000
0.469,-5.005,1.347,57.000
0.450,-4.995,1.344,56.000
0.430,-4.983,1.340,54.000
0.412,-4.981,1.339,53.000
0.393,-4.959,1.333,53.000
0.375,-4.949,1.330,51.000
0.360,-4.961,1.333,60.000
0.340,-4.940,1.327,52.000
0.324,-4.933,1.325,52.000
0.305,-4.919,1.320,53.000
0.288,-4.904,1.316,53.000
0.270,-4.905,1.316,54.000
0.253,-4.906,1.316,53.000
0.234,-4.897,1.314,55.000
0.217,-4.871,1.307,56.000
0.199,-4.858,1.303,54.000
0.182,-4.849,1.300,56.000
0.165,-4.854,1.301,56.000
0.148,-4.839,1.297,56.000
0.129,-4.816,1.291,55.000
0.115,-4.795,1.285,53.000
0.098,-4.796,1.285,52.000
0.082,-4.815,1.290,60.000
0.063,-4.785,1.282,51.000
0.049,-4.793,1.284,60.000
0.032,-4.756,1.274,51.000
0.014,-4.770,1.278,60.000
-0.002,-4.754,1.274,51.000
-0.021,-4.756,1.274,57.000
-0.037,-4.731,1.268,54.000
-0.053,-4.721,1.265,55.000
-0.070,-4.721,1.265,56.000
-0.085,-4.717,1.264,56.000
-0.102,-4.709,1.262,56.000
-0.117,-4.693,1.258,55.000
-0.134,-4.681,1.255,56.000
-0.148,-4.673,1.253,57.000
-0.166,-4.672,1.253,57.000
-0.181,-4.664,1.251,57.000
-0.197,-4.640,1.244,55.000
-0.212,-4.624,1.240,55.000
-0.229,-4.623,1.240,55.000
-0.243,-4.613,1.238,53.000
-0.260,-4.600,1.235,54.000
-0.274,-4.588,1.231,52.000
-0.290,-4.587,1.231,60.000
-0.305,-4.570,1.227,52.000
-0.322,-4.565,1.226,54.000
-0.336,-4.560,1.225,54.000
-0.350,-4.544,1.221,53.000
-0.366,-4.529,1.217,55.000
-0.382,-4.530,1.218,54.000
-0.399,-4.530,1.219,55.000
-0.414,-4.527,1.218,54.000
-0.427,-4.504,1.212,57.000
-0.334,-3.393,0.914,9.000
0,0,0,0
-0.360,-3.418,0.921,133.000
-0.370,-3.403,0.917,133.000
-0.379,-3.369,0.908,129.000
-0.390,-3.374,0.910,133.000
-0.401,-3.359,0.906,129.000
-0.413,-3.365,0.908,130.000
-0.426,-3.371,0.911,134.000
-0.434,-3.345,0.904,129.000
-0.446,-3.341,0.903,131.000
-0.456,-3.332,0.901,131.000
-0.469,-3.331,0.901,133.000
-0.480,-3.337,0.903,132.000
-0.489,-3.316,0.898,133.000
-0.499,-3.303,0.895,131.000
-0.512,-3.301,0.895,132.000
-0.523,-3.303,0.896,133.000
-0.535,-3.305,0.897,131.000
-0.543,-3.286,0.892,134.000
-0.553,-3.273,0.889,134.000
-0.566,-3.274,0.890,134.000
-0.577,-3.270,0.890,133.000
-0.587,-3.269,0.890,133.000
-0.596,-3.253,0.886,136.000
-0.604,-3.234,0.882,132.000
-0.618,-3.241,0.884,135.000
-0.628,-3.233,0.883,131.000
-0.639,-3.227,0.882,132.000
-0.649,-3.219,0.880,134.000
-0.656,-3.196,0.874,132.000
-0.667,-3.194,0.874,132.000
-0.679,-3.195,0.875,133.000
-0.690,-3.197,0.876,133.000
-0.699,-3.185,0.874,134.000
-0.707,-3.170,0.870,131.000
-0.718,-3.163,0.869,132.000
-0.731,-3.172,0.872,133.000
-0.741,-3.166,0.871,132.000
-0.750,-3.154,0.869,134.000
-0.759,-3.141,0.866,132.000
-0.770,-3.139,0.866,131.000
-0.784,-3.149,0.870,135.000
-0.791,-3.132,0.865,130.000
-0.805,-3.138,0.868,134.000
-0.810,-3.113,0.862,132.000
-0.822,-3.114,0.863,131.000
-0.832,-3.111,0.863,132.000
-0.843,-3.108,0.863,131.000
-0.850,-3.092,0.859,129.000
-0.864,-3.100,0.862,133.000
-0.871,-3.086,0.859,129.000
-0.887,-3.100,0.864,134.000
-0.892,-3.078,0.859,131.000
-0.901,-3.066,0.856,129.000
-0.912,-3.068,0.858,131.000
-0.920,-3.054,0.855,129.000
-0.937,-3.071,0.860,133.000
-0.942,-3.049,0.855,130.000
-0.952,-3.044,0.855,128.000
-0.962,-3.037,0.854,130.000
-0.973,-3.037,0.855,131.000
-0.984,-3.036,0.855,133.000
-0.992,-3.027,0.854,132.000
-1.000,-3.014,0.851,130.000
-1.009,-3.009,0.850,133.000
-1.021,-3.009,0.852,131.000
-1.033,-3.005,0.852,131.000
-1.041,-2.996,0.850,130.000
-1.050,-2.991,0.849,132.000
-1.058,-2.980,0.847,132.000
-1.071,-2.984,0.849,132.000
-1.082,-2.980,0.849,132.000
-1.091,-2.977,0.849,132.000
-1.098,-2.962,0.846,132.000
-1.104,-2.947,0.843,132.000
-1.117,-2.950,0.845,132.000
-1.129,-2.954,0.847,132.000
-1.141,-2.952,0.848,128.000
-1.168,-2.993,0.861,28.000
-1.207,-3.059,0.881,29.000
-1.250,-3.137,0.905,27.000
-1.288,-3.201,0.925,27.000
-1.337,-3.289,0.951,29.000
-1.379,-3.358,0.973,28.000
-1.429,-3.444,0.999,29.000
-1.480,-3.533,1.026,28.000
-1.542,-3.648,1.061,40.000
-1.610,-3.770,1.098,70.000
-1.625,-3.772,1.100,131.000
-1.635,-3.759,1.098,133.000
-1.650,-3.755,1.099,137.000
-1.666,-3.756,1.101,137.000
-1.680,-3.752,1.102,136.000
-1.686,-3.730,1.097,137.000
-1.696,-3.721,1.096,137.000
-1.714,-3.724,1.098,138.000
-1.725,-3.719,1.098,138.000
-1.740,-3.714,1.099,137.000
-1.749,-3.699,1.096,138.000
-1.760,-3.689,1.095,138.000
-1.773,-3.683,1.095,139.000
-1.790,-3.684,1.097,138.000
-1.801,-3.678,1.097,138.000
-1.809,-3.659,1.094,137.000
-1.819,-3.648,1.092,138.000
-1.837,-3.652,1.095,138.000
-1.849,-3.644,1.095,137.000
-1.864,-3.640,1.096,137.000
-1.870,-3.624,1.093,137.000
-1.880,-3.612,1.091,138.000
-1.896,-3.613,1.093,138.000
-1.912,-3.611,1.095,140.000
-1.925,-3.606,1.095,138.000
-1.930,-3.586,1.091,138.000
-1.941,-3.576,1.090,138.000
-1.951,-3.566,1.089,139.000
-1.974,-3.575,1.094,138.000
-1.986,-3.568,1.094,139.000
-1.989,-3.549,1.090,139.000
-2.004,-3.545,1.091,138.000
-2.016,-3.538,1.091,139.000
-2.031,-3.534,1.092,139.000
-2.044,-3.529,1.093,137.000
-2.054,-3.516,1.091,138.000
-2.063,-3.507,1.090,138.000
-2.076,-3.499,1.090,138.000
-2.092,-3.500,1.093,140.000
-2.110,-3.501,1.095,139.000
-2.114,-3.481,1.091,139.000
-2.124,-3.470,1.090,138.000
-2.134,-3.461,1.090,137.000
-2.152,-3.462,1.092,139.000
-2.166,-3.458,1.093,139.000
-2.176,-3.447,1.092,139.000
-2.184,-3.433,1.090,138.000
-2.198,-3.428,1.091,139.000
-2.216,-3.431,1.094,138.000
-2.232,-3.429,1.096,141.000
-2.238,-3.411,1.093,138.000
-2.247,-3.399,1.092,140.000
-2.259,-3.393,1.092,138.000
-2.278,-3.395,1.095,138.000
-2.293,-3.393,1.097,138.000
-2.297,-3.372,1.093,139.000
-2.305,-3.362,1.092,139.000
-2.320,-3.356,1.093,138.000
-2.336,-3.355,1.095,138.000
-2.355,-3.356,1.098,139.000
-2.359,-3.339,1.095,139.000
-2.371,-3.330,1.095,138.000
-2.386,-3.329,1.097,138.000
-2.400,-3.323,1.098,139.000
-2.415,-3.317,1.099,138.000
-2.422,-3.303,1.097,139.000
-2.433,-3.294,1.097,139.000
-2.448,-3.288,1.098,138.000
-2.460,-3.284,1.099,138.000
-2.476,-3.282,1.102,136.000
-2.484,-3.268,1.100,137.000
-2.493,-3.254,1.098,138.000
-2.507,-3.251,1.100,137.000
-2.525,-3.251,1.103,137.000
-2.539,-3.243,1.104,136.000
-2.544,-3.227,1.101,137.000
-2.556,-3.220,1.102,138.000
-2.570,-3.214,1.103,136.000
-2.588,-3.214,1.106,136.000
-2.602,-3.208,1.107,135.000
-2.608,-3.195,1.105,137.000
-2.619,-3.184,1.105,138.000
-2.628,-3.174,1.104,132.000
-2.644,-3.168,1.106,128.000
0,0,0,0
0,0,0,0
-4.827,-5.666,1.994,1.000
-4.842,-5.641,1.992,0.000
-4.868,-5.636,1.995,1.000
-4.884,-5.614,1.994,0.000
-4.896,-5.589,1.991,1.000
-4.914,-5.568,1.990,1.000
-4.942,-5.564,1.994,1.000
-4.966,-5.552,1.996,0.000
-4.989,-5.537,1.997,0.000
-5.001,-5.510,1.994,0.000
-5.007,-5.481,1.989,0.000
-5.035,-5.474,1.993,0.000
-5.063,-5.462,1.995,1.000
-5.081,-5.443,1.995,0.000
-5.091,-5.417,1.992,0.000
-5.104,-5.394,1.990,0.000
-5.127,-5.386,1.992,1.000
-5.133,-5.353,1.987,0.000
-5.777,-5.982,2.228,0.000
0,0,0,0
-5.918,-6.045,2.267,0.000
-5.975,-6.059,2.280,0.000
0,0,0,0
0,0,0,0
0,0,0,0
0,0,0,0
0,0,0,0
0,0,0,0
-5.444,-5.261,2.029,0.000
-5.374,-5.156,1.995,0.000
-5.325,-5.073,1.971,0.000
-5.295,-5.009,1.953,0.000
-5.224,-4.907,1.920,1.000
-5.266,-4.910,1.929,3.000
-5.278,-4.891,1.928,3.000
-5.293,-4.870,1.927,1.000
-5.324,-4.861,1.932,1.000
-5.347,-4.848,1.934,1.000
0,0,0,0
0,0,0,0
0,0,0,0
0,0,0,0
0,0,0,0
0,0,0,0
0,0,0,0
0,0,0,0
0,0,0,0
0,0,0,0
-4.745,-3.984,1.660,0.000
-4.636,-3.864,1.617,0.000
-4.605,-3.814,1.602,0.000
-4.562,-3.751,1.582,0.000
-4.555,-3.720,1.576,0.000
-4.531,-3.673,1.563,0.000
-4.476,-3.602,1.539,0.000
-4.452,-3.558,1.527,0.000
-4.452,-3.533,1.523,2.000
-4.457,-3.511,1.520,3.000
-4.475,-3.501,1.522,3.000
-4.487,-3.485,1.522,2.000
-4.516,-3.482,1.528,1.000
-4.538,-3.473,1.531,1.000
-4.548,-3.456,1.531,0.000
0,0,0,0
0,0,0,0
0,0,0,0
0,0,0,0
0,0,0,0
0,0,0,0
0,0,0,0
0,0,0,0
0,0,0,0
0,0,0,0
0,0,0,0
0,0,0,0
0,0,0,0
-4.105,-2.817,1.334,2.000
-4.113,-2.801,1.333,7.000
-4.091,-2.765,1.323,25.000
-4.096,-2.748,1.322,57.000
-4.109,-2.738,1.323,50.000
-4.123,-2.725,1.324,43.000
0,0,0,0
0,0,0,0
-4.164,-2.690,1.328,1.000
-4.191,-2.687,1.334,1.000
-4.217,-2.682,1.339,0.000
-2.802,-1.768,0.888,1.000
0,0,0,0
-2.788,-1.733,0.879,40.000
-2.778,-1.715,0.875,120.000
-2.755,-1.686,0.865,42.000
-2.751,-1.671,0.862,38.000
-2.734,-1.647,0.855,33.000
-2.663,-1.592,0.831,23.000
-2.684,-1.591,0.836,37.000
-2.691,-1.583,0.837,43.000
-2.697,-1.573,0.837,42.000
-2.688,-1.557,0.832,43.000
-2.670,-1.534,0.825,42.000
-2.649,-1.509,0.817,39.000
-2.642,-1.493,0.813,36.000
-2.635,-1.478,0.810,37.000
-2.632,-1.464,0.807,35.000
-2.614,-1.442,0.800,36.000
-2.605,-1.425,0.796,36.000
-2.598,-1.410,0.792,38.000
-2.589,-1.393,0.788,39.000
-2.577,-1.375,0.783,37.000
-2.565,-1.357,0.777,38.000
-2.546,-1.335,0.770,47.000
-2.543,-1.323,0.768,46.000
-2.532,-1.306,0.764,44.000
-2.534,-1.295,0.762,44.000
-2.519,-1.278,0.757,42.000
-2.506,-1.260,0.752,43.000
-2.507,-1.250,0.751,43.000
-2.505,-1.237,0.749,41.000
-2.498,-1.224,0.745,43.000
-2.480,-1.204,0.739,45.000
-2.461,-1.185,0.732,46.000
-2.459,-1.172,0.730,46.000
-2.450,-1.158,0.726,45.000
-2.447,-1.146,0.724,44.000
-2.429,-1.127,0.717,41.000
-2.429,-1.117,0.716,43.000
-2.431,-1.108,0.716,50.000
-2.412,-1.090,0.709,41.000
-2.416,-1.081,0.709,41.000
-2.393,-1.061,0.701,40.000
-2.381,-1.046,0.697,39.000
-2.382,-1.037,0.696,40.000
-2.383,-1.027,0.695,40.000
-2.377,-1.015,0.693,39.000
-2.356,-0.996,0.685,34.000
-2.358,-0.987,0.685,15.000
-2.363,-0.980,0.685,9.000
-3.964,-1.627,1.148,2.000
-3.989,-1.621,1.154,2.000
-3.999,-1.608,1.155,2.000
-4.011,-1.598,1.157,2.000
-4.031,-1.589,1.161,2.000
-4.055,-1.582,1.166,2.000
-4.075,-1.573,1.170,2.000
-4.080,-1.560,1.170,2.000
-4.096,-1.549,1.173,2.000
-4.094,-1.532,1.171,0.000
-2.295,-0.850,0.656,0.000
-2.280,-0.835,0.651,14.000
-2.252,-0.816,0.642,48.000
-2.242,-0.804,0.638,46.000
-2.243,-0.795,0.638,47.000
-2.242,-0.786,0.637,50.000
-2.236,-0.775,0.634,48.000
-2.222,-0.762,0.629,50.000
-2.208,-0.749,0.625,48.000
-2.211,-0.741,0.625,48.000
-2.208,-0.731,0.623,50.000
-2.210,-0.724,0.623,50.000
-2.187,-0.708,0.616,50.000
-2.177,-0.696,0.612,46.000
-2.172,-0.686,0.610,45.000
-2.169,-0.677,0.609,47.000
-2.175,-0.670,0.610,50.000
-2.155,-0.656,0.604,50.000
-2.142,-0.644,0.599,50.000
-2.150,-0.639,0.601,52.000
-2.139,-0.627,0.597,55.000
-2.136,-0.618,0.596,49.000
-2.131,-0.609,0.594,54.000
-2.121,-0.598,0.591,54.000
-2.122,-0.590,0.590,55.000
-2.124,-0.583,0.590,55.000
-2.122,-0.574,0.589,58.000
-2.104,-0.562,0.583,56.000
-2.104,-0.554,0.583,58.000
-2.096,-0.544,0.580,56.000
-2.096,-0.536,0.580,58.000
-2.096,-0.528,0.579,56.000
-2.085,-0.518,0.576,58.000
-2.060,-0.504,0.568,55.000
-2.075,-0.500,0.572,56.000
-2.068,-0.491,0.569,60.000
-2.062,-0.482,0.567,60.000
-2.052,-0.473,0.564,58.000
-2.035,-0.461,0.559,55.000
-2.048,-0.456,0.562,58.000
-2.042,-0.447,0.560,60.000
-2.040,-0.439,0.559,58.000
-2.024,-0.428,0.554,56.000
-2.018,-0.420,0.552,56.000
-2.019,-0.413,0.552,56.000
-2.017,-0.406,0.551,56.000
-2.020,-0.399,0.552,58.000
-2.001,-0.388,0.546,52.000
-1.998,-0.380,0.545,52.000
-1.998,-0.373,0.545,50.000
-1.995,-0.365,0.544,48.000
-2.000,-0.359,0.545,39.000
-1.979,-0.348,0.538,17.000
-1.969,-0.339,0.535,9.000
-1.983,-0.334,0.539,7.000
-1.980,-0.327,0.538,6.000
-1.981,-0.320,0.538,6.000
-1.964,-0.310,0.533,3.000
-1.957,-0.302,0.531,2.000
-1.954,-0.295,0.530,1.000
-1.955,-0.288,0.530,0.000
0,0,0,0
0,0,0,0
0,0,0,0
0,0,0,0
0,0,0,0
0,0,0,0
0,0,0,0
0,0,0,0
0,0,0,0
0,0,0,0
0,0,0,0
0,0,0,0
0,0,0,0
0,0,0,0
0,0,0,0
0,0,0,0
0,0,0,0
0,0,0,0
0,0,0,0
0,0,0,0
0,0,0,0
0,0,0,0
0,0,0,0
0,0,0,0
0,0,0,0
0,0,0,0
0,0,0,0
0,0,0,0
0,0,0,0
0,0,0,0
0,0,0,0
0,0,0,0
0,0,0,0
0,0,0,0
0,0,0,0
0,0,0,0
0,0,0,0
0,0,0,0
0,0,0,0
0,0,0,0
0,0,0,0
0,0,0,0
0,0,0,0
0,0,0,0
0,0,0,0
0,0,0,0
0,0,0,0
0,0,0,0
0,0,0,0
0,0,0,0
0,0,0,0
0,0,0,0
0,0,0,0
0,0,0,0
0,0,0,0
0,0,0,0
0,0,0,0
0,0,0,0
0,0,0,0
0,0,0,0
0,0,0,0
0,0,0,0
0,0,0,0
0,0,0,0
-0.499,0.039,0.134,7.000
0,0,0,0
0,0,0,0
0,0,0,0
0,0,0,0
0,0,0,0
-0.498,0.050,0.134,7.000
0,0,0,0
0,0,0,0
0,0,0,0
0,0,0,0
0,0,0,0
0,0,0,0
0,0,0,0
-0.496,0.063,0.134,7.000
0,0,0,0
-0.496,0.067,0.134,7.000
0,0,0,0
-0.495,0.070,0.134,7.000
0,0,0,0
-0.541,0.081,0.146,6.000
-0.495,0.076,0.134,7.000
0,0,0,0
-0.479,0.077,0.130,7.000
-0.494,0.081,0.134,7.000
0,0,0,0
-0.520,0.089,0.141,6.000
0,0,0,0
-0.493,0.088,0.134,7.000
-0.587,0.107,0.160,5.000
-0.538,0.100,0.146,6.000
-0.518,0.098,0.141,6.000
-0.518,0.100,0.141,6.000
-0.491,0.096,0.134,7.000
-0.585,0.117,0.160,5.000
-0.547,0.111,0.150,6.000
-0.585,0.121,0.160,5.000
-0.535,0.113,0.146,6.000
-0.489,0.105,0.134,7.000
-0.534,0.116,0.146,6.000
-0.583,0.129,0.160,5.000
-0.582,0.131,0.160,5.000
-0.510,0.117,0.140,6.000
-0.536,0.125,0.148,6.000
-0.581,0.137,0.160,5.000
-0.524,0.126,0.144,6.000
-0.531,0.129,0.146,6.000
-0.580,0.143,0.160,5.000
-0.579,0.145,0.160,5.000
-0.530,0.135,0.146,6.000
-0.578,0.149,0.160,5.000
-0.578,0.151,0.160,5.000
-0.577,0.153,0.160,5.000
-0.576,0.155,0.160,5.000
-0.576,0.157,0.160,5.000
-0.575,0.159,0.160,5.000
-0.575,0.161,0.160,5.000
-0.574,0.163,0.160,5.000
-0.574,0.165,0.160,5.000
-0.573,0.167,0.160,5.000
-0.573,0.169,0.160,5.000
-0.572,0.171,0.160,5.000
-0.571,0.173,0.160,5.000
-0.571,0.175,0.160,5.000
-0.570,0.177,0.160,5.000
-0.569,0.179,0.160,5.000
-0.569,0.181,0.160,5.000
-0.568,0.183,0.160,5.000
-0.568,0.185,0.160,5.000
-0.567,0.187,0.160,5.000
-0.566,0.189,0.160,5.000
-0.566,0.191,0.160,5.000
-0.565,0.193,0.160,5.000
-0.564,0.195,0.160,5.000
-0.564,0.197,0.160,5.000
-0.563,0.199,0.160,5.000
-0.562,0.201,0.160,5.000
-0.561,0.203,0.160,5.000
-0.561,0.205,0.160,5.000
-0.560,0.207,0.160,5.000
-0.559,0.208,0.160,5.000
-0.559,0.210,0.160,5.000
-0.558,0.212,0.160,5.000
-0.557,0.214,0.160,5.000
0,0,0,0
0,0,0,0
-0.555,0.220,0.160,5.000
0,0,0,0
0,0,0,0
0,0,0,0
0,0,0,0
0,0,0,0
0,0,0,0
-1.943,0.826,0.566,0.000
-1.955,0.838,0.570,2.000
-1.947,0.843,0.568,7.000
-1.944,0.849,0.568,15.000
-1.939,0.855,0.568,37.000
-1.920,0.855,0.563,48.000
-1.905,0.856,0.560,56.000
-1.923,0.872,0.566,78.000
-1.904,0.872,0.561,66.000
-1.891,0.873,0.558,68.000
-1.884,0.878,0.557,66.000
-1.881,0.884,0.557,68.000
-1.880,0.892,0.557,70.000
-1.887,0.904,0.561,70.000
-1.873,0.906,0.557,70.000
-1.865,0.909,0.556,73.000
-1.869,0.919,0.558,73.000
-1.866,0.925,0.558,65.000
-1.866,0.934,0.559,68.000
-1.856,0.937,0.557,68.000
-1.845,0.940,0.555,68.000
-1.852,0.952,0.558,73.000
-1.895,0.982,0.572,62.000
0,0,0,0
0,0,0,0
-6.703,3.561,2.034,0.000
-6.694,3.586,2.035,0.000
-6.679,3.607,2.034,0.000
-6.659,3.627,2.032,0.000
-6.642,3.649,2.031,0.000
-6.630,3.672,2.031,0.000
-6.620,3.697,2.032,0.000
-6.616,3.725,2.034,0.000
-6.604,3.749,2.035,0.000
-6.566,3.757,2.027,0.000
-6.564,3.785,2.030,0.000
-6.555,3.812,2.032,0.000
-6.538,3.830,2.030,0.000
-6.534,3.859,2.033,0.000
-6.531,3.887,2.036,0.000
-6.500,3.901,2.031,0.000
-6.484,3.920,2.030,0.000
-6.476,3.948,2.032,0.000
-6.464,3.971,2.033,0.000
-6.453,3.996,2.034,0.000
-6.430,4.012,2.031,0.000
-6.419,4.036,2.032,0.000
-6.434,4.077,2.041,0.000
-6.393,4.084,2.033,0.000
-6.391,4.109,2.036,0.000
-6.368,4.126,2.033,0.000
-6.349,4.145,2.032,0.000
-6.336,4.170,2.032,0.000
-6.337,4.199,2.037,0.000
-6.308,4.211,2.032,0.000
-6.292,4.235,2.032,0.000
-6.266,4.249,2.029,0.000
-6.278,4.289,2.037,0.000
-6.263,4.311,2.037,0.000
-6.236,4.323,2.033,0.000
-6.217,4.344,2.032,0.000
-6.216,4.373,2.036,0.000
-6.196,4.394,2.035,0.000
-6.191,4.421,2.038,0.000
-6.170,4.440,2.037,0.000
-6.148,4.455,2.034,0.000
-6.127,4.474,2.033,0.000
-6.117,4.497,2.034,0.000
-6.098,4.517,2.033,0.000
-6.109,4.557,2.042,0.000
-6.071,4.562,2.035,0.000
-6.068,4.592,2.039,0.000
-6.045,4.610,2.037,0.000
-6.041,4.640,2.041,0.000
-6.009,4.650,2.036,0.000
-5.988,4.665,2.034,0.000
-5.977,4.691,2.036,0.000
-5.973,4.721,2.040,0.000
-5.957,4.742,2.040,0.000
-5.931,4.755,2.037,0.000
-5.914,4.776,2.037,0.000
-5.913,4.809,2.042,0.000
-5.896,4.829,2.042,0.000
-5.895,4.861,2.047,0.000
-5.850,4.860,2.038,0.000
-5.837,4.882,2.039,0.000
-5.813,4.899,2.037,0.000
-5.806,4.925,2.040,0.000
-5.783,4.943,2.038,0.000
-5.767,4.959,2.038,0.000
-5.753,4.984,2.039,0.000
-5.734,5.002,2.039,0.000
-5.720,5.027,2.041,0.000
-5.712,5.054,2.044,0.000
-5.684,5.065,2.040,0.000
-5.679,5.094,2.044,0.000
-5.695,5.146,2.057,0.000
-5.666,5.154,2.052,3.000
-5.645,5.171,2.051,3.000
-5.623,5.185,2.049,3.000
-5.598,5.200,2.047,3.000
-5.586,5.224,2.049,3.000
-5.579,5.254,2.053,3.000
-5.552,5.266,2.050,0.000
-7.504,7.169,2.781,0.000
-7.482,7.195,2.781,1.000
-7.473,7.237,2.787,0.000
-7.458,7.275,2.792,0.000
-7.445,7.316,2.797,0.000
-7.430,7.347,2.800,1.000
-7.419,7.391,2.806,0.000
-5.395,5.410,2.047,0.000
-5.362,5.416,2.042,0.000
-5.369,5.458,2.051,1.000
-5.346,5.475,2.050,1.000
-5.328,5.490,2.050,1.000
-5.303,5.505,2.048,1.000
-5.282,5.521,2.047,0.000
-5.273,5.551,2.051,0.000
-5.235,5.547,2.044,0.000
-5.221,5.573,2.046,0.000
-5.206,5.595,2.048,0.000
-5.196,5.623,2.051,0.000
-5.163,5.627,2.046,0.000
-5.139,5.641,2.045,0.000
-5.121,5.660,2.045,0.000
-5.107,5.683,2.047,0.000
-5.076,5.690,2.043,0.000
-5.056,5.707,2.043,0.000
-5.043,5.730,2.045,0.000
-5.023,5.747,2.045,0.000
-5.030,5.797,2.057,0.000
-5.009,5.815,2.057,0.000
-4.975,5.814,2.050,0.000
-4.953,5.833,2.050,0.000
-4.941,5.858,2.053,0.000
-4.915,5.870,2.051,0.000
-4.916,5.909,2.060,0.000
-4.890,5.921,2.058,0.000
-4.863,5.928,2.055,0.000
-4.841,5.946,2.055,0.000
-1.916,2.369,0.816,0.000
-1.906,2.374,0.816,4.000
-1.911,2.395,0.821,4.000
-1.873,2.366,0.809,4.000
-1.841,2.342,0.798,3.000
-1.812,2.323,0.789,2.000
-1.778,2.296,0.778,1.000
-1.763,2.293,0.775,1.000
-1.733,2.269,0.765,1.000
-1.707,2.250,0.757,1.000
-1.692,2.247,0.754,1.000
-1.680,2.249,0.752,1.000
-1.643,2.214,0.739,1.000
-1.612,2.188,0.728,1.000
-1.594,2.178,0.723,1.000
-1.583,2.181,0.722,1.000
-1.590,2.205,0.728,1.000
-1.565,2.187,0.721,1.000
-1.475,2.076,0.682,0.000
-1.412,2.004,0.657,2.000
-1.409,2.013,0.658,1.000
-1.394,2.007,0.655,3.000
-1.381,2.002,0.652,3.000
-1.361,1.990,0.646,7.000
-1.340,1.971,0.639,30.000
-1.333,1.976,0.639,30.000
-1.319,1.970,0.635,33.000
-1.302,1.960,0.630,34.000
-1.291,1.958,0.628,52.000
-1.278,1.953,0.625,83.000
-1.267,1.950,0.623,84.000
-1.261,1.957,0.624,40.000
-1.246,1.946,0.619,36.000
-1.230,1.937,0.615,36.000
-1.210,1.921,0.608,33.000
-1.198,1.917,0.606,34.000
-1.187,1.914,0.604,40.000
-1.174,1.909,0.600,38.000
-1.159,1.897,0.596,39.000
-1.144,1.887,0.591,41.000
-1.135,1.887,0.590,40.000
-1.122,1.881,0.587,41.000
-1.112,1.878,0.585,42.000
-1.095,1.864,0.579,42.000
-1.081,1.854,0.575,46.000
-1.068,1.848,0.572,44.000
-1.058,1.845,0.570,43.000
-1.047,1.842,0.568,44.000
-1.036,1.835,0.565,54.000
-1.023,1.827,0.561,75.000
-1.010,1.819,0.557,62.000
-1.010,1.836,0.562,60.000
-1.027,1.880,0.574,85.000
-1.010,1.865,0.568,84.000
-1.000,1.862,0.566,76.000
-0.999,1.876,0.569,73.000
-1.000,1.893,0.574,81.000
-0.997,1.903,0.576,81.000
-0.986,1.900,0.574,81.000
-0.976,1.896,0.571,68.000
-0.979,1.919,0.577,78.000
-0.977,1.931,0.580,73.000
-0.974,1.941,0.582,73.000
-0.965,1.941,0.581,73.000
-0.957,1.940,0.580,76.000
-0.957,1.958,0.584,65.000
-0.954,1.968,0.586,65.000
-0.951,1.980,0.589,63.000
-0.943,1.981,0.588,57.000
-0.938,1.988,0.589,47.000
-0.935,1.998,0.591,38.000
-0.932,2.011,0.594,28.000
-0.929,2.022,0.596,17.000
-0.917,2.015,0.593,10.000
-0.912,2.022,0.594,7.000
-0.908,2.034,0.597,4.000
-0.906,2.048,0.600,2.000
-0.902,2.058,0.602,2.000
-0.892,2.054,0.600,1.000
-0.886,2.062,0.601,0.000
-0.880,2.067,0.602,0.000
0,0,0,0
0,0,0,0
0,0,0,0
0,0,0,0
0,0,0,0
0,0,0,0
0,0,0,0
0,0,0,0
0,0,0,0
0,0,0,0
0,0,0,0
0,0,0,0
0,0,0,0
0,0,0,0
0,0,0,0
0,0,0,0
0,0,0,0
0,0,0,0
0,0,0,0
0,0,0,0
0,0,0,0
0,0,0,0
0,0,0,0
0,0,0,0
0,0,0,0
0,0,0,0
0,0,0,0
0,0,0,0
0,0,0,0
0,0,0,0
0,0,0,0
0,0,0,0
0,0,0,0
0,0,0,0
0,0,0,0
0,0,0,0
0,0,0,0
0,0,0,0
0,0,0,0
0,0,0,0
0,0,0,0
0,0,0,0
0,0,0,0
0,0,0,0
0,0,0,0
0,0,0,0
0,0,0,0
0,0,0,0
0,0,0,0
0,0,0,0
0,0,0,0
0,0,0,0
0,0,0,0
0,0,0,0
0,0,0,0
0,0,0,0
0,0,0,0
0,0,0,0
0,0,0,0
0,0,0,0
0,0,0,0
0,0,0,0
0,0,0,0
0,0,0,0
0,0,0,0
0,0,0,0
0,0,0,0
0,0,0,0
0,0,0,0
0,0,0,0
0,0,0,0
0,0,0,0
0,0,0,0
0,0,0,0
0,0,0,0
0,0,0,0
0,0,0,0
0,0,0,0
0,0,0,0
0,0,0,0
0,0,0,0
0,0,0,0
0,0,0,0
0,0,0,0
0,0,0,0
0,0,0,0
0,0,0,0
0,0,0,0
0,0,0,0
0,0,0,0
0,0,0,0
0,0,0,0
0,0,0,0
0,0,0,0
0,0,0,0
0,0,0,0
0,0,0,0
0,0,0,0
0,0,0,0
0,0,0,0
0,0,0,0
0,0,0,0
0,0,0,0
0,0,0,0
0,0,0,0
0,0,0,0
0,0,0,0
0,0,0,0
0,0,0,0
0,0,0,0
0,0,0,0
0,0,0,0
0,0,0,0
0,0,0,0
0,0,0,0
0,0,0,0
0,0,0,0
0,0,0,0
0,0,0,0
0,0,0,0
0,0,0,0
0,0,0,0
0,0,0,0
0,0,0,0
0,0,0,0
0,0,0,0
0,0,0,0
0,0,0,0
0,0,0,0
0,0,0,0
0,0,0,0
0,0,0,0
0,0,0,0
0,0,0,0
0,0,0,0
0,0,0,0
0,0,0,0
0,0,0,0
0,0,0,0
0,0,0,0
0,0,0,0
0,0,0,0
0,0,0,0
0,0,0,0
0,0,0,0
0,0,0,0
0,0,0,0
0,0,0,0
0,0,0,0
0,0,0,0
0,0,0,0
0,0,0,0
0,0,0,0
0,0,0,0
0,0,0,0
0,0,0,0
0,0,0,0
0,0,0,0
0,0,0,0
0,0,0,0
0,0,0,0
0,0,0,0
0,0,0,0
0,0,0,0
0,0,0,0
0,0,0,0
0,0,0,0
0,0,0,0
0,0,0,0
0,0,0,0
0,0,0,0
0,0,0,0
0,0,0,0
0,0,0,0
0,0,0,0
0,0,0,0
0,0,0,0
0,0,0,0
0,0,0,0
0,0,0,0
0,0,0,0
0,0,0,0
0,0,0,0
0,0,0,0
0,0,0,0
0,0,0,0
0,0,0,0
0,0,0,0
0,0,0,0
0,0,0,0
0,0,0,0
0,0,0,0
0,0,0,0
0,0,0,0
0,0,0,0
0,0,0,0
0,0,0,0
0,0,0,0
0,0,0,0
0,0,0,0
0,0,0,0
0,0,0,0
0,0,0,0
0,0,0,0
0,0,0,0
0,0,0,0
0,0,0,0
2.831,8.590,2.088,0.000
2.861,8.580,2.088,0.000
2.914,8.644,2.106,0.000
2.929,8.590,2.095,0.000
2.958,8.576,2.094,0.000
2.981,8.547,2.090,0.000
3.007,8.521,2.086,0.000
3.042,8.525,2.090,0.000
3.064,8.501,2.086,1.000
3.091,8.483,2.084,2.000
3.123,8.473,2.085,4.000
3.155,8.470,2.087,4.000
3.177,8.447,2.083,5.000
3.206,8.436,2.083,6.000
3.229,8.406,2.079,5.000
3.266,8.415,2.084,7.000
3.294,8.402,2.083,8.000
3.327,8.398,2.085,13.000
3.346,8.367,2.080,14.000
3.377,8.358,2.081,15.000
3.404,8.341,2.080,16.000
3.436,8.336,2.082,20.000
3.464,8.323,2.081,22.000
3.493,8.310,2.081,26.000
3.513,8.283,2.077,29.000
3.547,8.284,2.080,33.000
3.579,8.278,2.082,37.000
3.612,8.276,2.085,36.000
3.641,8.262,2.084,29.000
3.665,8.240,2.082,42.000
3.692,8.226,2.082,43.000
3.721,8.213,2.082,45.000
3.757,8.210,2.084,43.000
3.783,8.191,2.083,47.000
3.805,8.170,2.081,45.000
3.837,8.164,2.083,45.000
3.863,8.147,2.082,46.000
3.899,8.148,2.085,46.000
3.921,8.122,2.082,47.000
3.945,8.099,2.080,43.000
3.972,8.086,2.080,45.000
4.008,8.088,2.084,47.000
4.037,8.072,2.083,46.000
4.060,8.047,2.081,44.000
4.086,8.033,2.081,44.000
4.116,8.023,2.082,45.000
4.147,8.011,2.083,45.000
4.177,8.000,2.083,45.000
4.202,7.987,2.083,37.000
4.227,7.967,2.082,46.000
4.252,7.947,2.081,45.000
4.284,7.941,2.083,47.000
4.315,7.931,2.084,45.000
4.338,7.907,2.082,47.000
4.363,7.887,2.081,45.000
4.388,7.868,2.080,43.000
4.420,7.861,2.082,47.000
4.449,7.847,2.083,46.000
4.475,7.830,2.082,49.000
4.499,7.808,2.080,47.000
4.525,7.790,2.080,45.000
4.556,7.781,2.082,44.000
4.580,7.767,2.082,46.000
4.606,7.747,2.081,46.000
4.631,7.728,2.080,45.000
4.664,7.722,2.083,44.000
4.688,7.702,2.082,46.000
4.719,7.692,2.083,45.000
4.743,7.668,2.082,45.000
4.774,7.658,2.083,43.000
4.793,7.633,2.081,45.000
4.824,7.622,2.083,45.000
4.852,7.610,2.083,45.000
4.874,7.586,2.082,45.000
4.894,7.559,2.079,45.000
4.922,7.545,2.080,46.000
4.953,7.535,2.082,46.000
4.979,7.517,2.082,46.000
5.001,7.496,2.080,47.000
5.025,7.475,2.079,49.000
5.053,7.461,2.080,47.000
5.086,7.453,2.083,47.000
5.111,7.433,2.083,46.000
5.132,7.409,2.081,46.000
5.155,7.386,2.079,48.000
5.180,7.368,2.079,47.000
5.213,7.360,2.082,47.000
5.241,7.345,2.083,47.000
5.261,7.318,2.081,46.000
5.284,7.297,2.080,28.000
5.314,7.287,2.082,44.000
5.342,7.272,2.083,49.000
5.369,7.256,2.084,48.000
5.388,7.228,2.081,47.000
5.408,7.203,2.079,48.000
5.433,7.184,2.079,47.000
5.463,7.171,2.081,47.000
5.491,7.157,2.083,46.000
5.510,7.130,2.080,47.000
5.533,7.107,2.079,48.000
5.555,7.087,2.079,46.000
5.591,7.082,2.083,47.000
5.617,7.061,2.083,48.000
5.633,7.031,2.080,44.000
5.657,7.014,2.080,47.000
5.682,6.994,2.080,50.000
5.712,6.982,2.083,46.000
5.738,6.963,2.083,47.000
5.755,6.937,2.081,46.000
5.778,6.915,2.080,48.000
5.812,6.907,2.084,39.000
5.832,6.882,2.083,46.000
5.859,6.862,2.083,48.000
5.877,6.836,2.081,48.000
5.896,6.809,2.079,48.000
5.920,6.788,2.079,47.000
5.951,6.777,2.082,48.000
5.980,6.762,2.084,47.000
5.991,6.726,2.079,48.000
6.014,6.705,2.079,47.000
6.040,6.687,2.080,48.000
6.063,6.666,2.080,47.000
6.092,6.655,2.083,47.000
6.107,6.625,2.080,48.000
6.123,6.596,2.078,47.000
6.154,6.583,2.080,48.000
6.179,6.564,2.081,48.000
6.205,6.545,2.082,47.000
6.219,6.515,2.079,48.000
6.237,6.488,2.078,48.000
6.263,6.468,2.079,47.000
6.297,6.457,2.082,41.000
6.314,6.434,2.081,48.000
6.331,6.407,2.079,48.000
6.352,6.381,2.079,48.000
6.377,6.361,2.079,50.000
6.398,6.340,2.079,47.000
6.428,6.326,2.082,50.000
6.442,6.295,2.079,48.000
6.464,6.273,2.079,49.000
6.485,6.251,2.079,49.000
6.513,6.235,2.082,59.000
6.528,6.206,2.079,62.000
6.544,6.178,2.078,62.000
6.563,6.152,2.077,58.000
6.590,6.134,2.079,52.000
6.617,6.117,2.080,50.000
6.641,6.096,2.081,47.000
6.652,6.067,2.079,47.000
6.666,6.038,2.076,46.000
6.697,6.023,2.079,48.000
6.721,6.003,2.080,49.000
6.744,5.982,2.081,39.000
6.814,6.001,2.096,142.000
6.834,5.974,2.096,132.000
6.853,5.949,2.095,127.000
6.871,5.923,2.094,66.000
6.899,5.905,2.097,58.000
6.928,5.890,2.099,58.000
6.951,5.868,2.100,61.000
6.974,5.847,2.101,61.000
6.976,5.808,2.096,54.000
6.976,5.765,2.089,47.000
6.978,5.726,2.084,41.000
6.898,5.620,2.054,37.000
6.912,5.591,2.052,36.000
7.021,5.639,2.079,13.000
7.047,5.619,2.081,13.000
7.059,5.591,2.079,13.000
7.076,5.564,2.078,13.000
7.101,5.544,2.080,11.000
7.124,5.522,2.081,12.000
7.148,5.503,2.083,11.000
7.158,5.471,2.080,13.000
7.173,5.441,2.079,37.000
7.192,5.416,2.079,50.000
7.213,5.394,2.079,48.000
7.232,5.369,2.079,49.000
7.242,5.336,2.077,48.000
7.254,5.306,2.075,48.000
7.273,5.280,2.075,49.000
7.298,5.259,2.077,48.000
7.315,5.235,2.077,48.000
7.329,5.206,2.075,46.000
7.342,5.177,2.074,48.000
7.363,5.154,2.075,49.000
7.387,5.132,2.077,49.000
7.409,5.109,2.078,47.000
7.418,5.077,2.075,46.000
7.434,5.050,2.075,50.000
7.451,5.026,2.075,47.000
7.478,5.006,2.078,49.000
7.497,4.981,2.078,46.000
7.507,4.950,2.076,55.000
7.520,4.921,2.075,51.000
7.539,4.896,2.075,52.000
7.571,4.879,2.079,61.000
7.557,4.833,2.071,17.000
7.499,4.761,2.051,15.000
7.446,4.691,2.032,55.000
7.423,4.640,2.021,61.000
7.394,4.586,2.009,66.000
7.362,4.531,1.996,105.000
7.321,4.471,1.980,105.000
7.295,4.420,1.969,66.000
7.264,4.366,1.957,102.000
7.237,4.316,1.945,105.000
7.245,4.287,1.944,136.000
7.250,4.255,1.941,135.000
7.279,4.238,1.944,136.000
7.309,4.225,1.949,135.000
7.350,4.215,1.956,136.000
7.379,4.196,1.960,133.000
7.401,4.174,1.962,132.000
7.428,4.157,1.965,133.000
7.456,4.138,1.969,135.000
7.495,4.124,1.975,136.000
7.527,4.107,1.980,136.000
7.541,4.081,1.980,135.000
7.578,4.066,1.985,137.000
7.606,4.051,1.989,134.000
7.647,4.039,1.997,136.000
7.681,4.022,2.002,136.000
7.705,4.001,2.004,135.000
7.732,3.979,2.007,132.000
7.763,3.960,2.012,131.000
7.797,3.944,2.017,135.000
7.836,3.929,2.024,136.000
7.860,3.907,2.026,136.000
7.887,3.886,2.030,135.000
7.919,3.869,2.035,127.000
7.963,3.856,2.043,48.000
8.025,3.853,2.055,32.000
8.049,3.830,2.058,32.000
8.069,3.806,2.060,33.000
8.100,3.786,2.064,35.000
8.141,3.770,2.071,42.000
8.176,3.752,2.077,55.000
8.182,3.720,2.075,57.000
8.191,3.690,2.074,54.000
8.206,3.662,2.074,52.000
8.224,3.636,2.076,55.000
8.239,3.611,2.077,50.000
8.248,3.581,2.076,49.000
8.249,3.548,2.073,48.000
6.286,2.677,1.577,30.000
6.275,2.647,1.572,116.000
6.276,2.621,1.570,28.000
6.232,2.579,1.557,10.000
6.234,2.554,1.555,25.000
6.237,2.530,1.554,33.000
6.232,2.503,1.550,108.000
6.211,2.469,1.543,108.000
6.180,2.432,1.533,31.000
0,0,0,0
2.546,0.981,0.630,14.000
2.564,0.978,0.633,8.000
2.565,0.968,0.633,8.000
2.567,0.959,0.633,7.000
2.554,0.944,0.629,8.000
2.566,0.938,0.631,7.000
2.573,0.930,0.632,7.000
2.583,0.924,0.633,7.000
2.579,0.913,0.632,7.000
2.579,0.903,0.631,10.000
2.600,0.900,0.635,33.000
2.607,0.892,0.636,107.000
2.607,0.882,0.635,74.000
2.595,0.868,0.632,48.000
2.605,0.861,0.633,22.000
2.612,0.853,0.634,12.000
2.617,0.844,0.635,12.000
2.631,0.839,0.638,12.000
2.623,0.826,0.635,12.000
2.620,0.816,0.633,11.000
2.637,0.811,0.637,30.000
2.642,0.803,0.638,102.000
2.652,0.796,0.639,104.000
2.638,0.782,0.635,111.000
2.639,0.772,0.635,116.000
2.644,0.763,0.635,108.000
2.646,0.754,0.635,85.000
2.658,0.748,0.638,25.000
2.655,0.737,0.636,6.000
2.665,0.730,0.638,6.000
2.694,0.727,0.644,20.000
2.680,0.714,0.640,68.000
2.697,0.709,0.644,110.000
2.683,0.694,0.640,114.000
2.681,0.684,0.639,114.000
2.693,0.677,0.641,116.000
2.709,0.671,0.644,118.000
2.707,0.660,0.643,119.000
2.698,0.648,0.641,118.000
2.691,0.637,0.638,116.000
2.712,0.632,0.643,93.000
2.728,0.625,0.646,59.000
2.732,0.616,0.647,98.000
2.730,0.606,0.646,116.000
2.728,0.595,0.645,116.000
2.736,0.588,0.646,114.000
2.742,0.579,0.647,114.000
2.755,0.572,0.650,114.000
2.746,0.560,0.647,111.000
2.748,0.551,0.647,111.000
2.761,0.543,0.650,108.000
2.767,0.534,0.651,72.000
0,0,0,0
2.761,0.513,0.648,7.000
5.297,0.966,1.243,20.000
0,0,0,0
5.306,0.929,1.244,118.000
5.293,0.908,1.240,124.000
5.279,0.886,1.236,127.000
5.255,0.863,1.230,127.000
5.245,0.843,1.226,126.000
5.236,0.824,1.224,124.000
5.227,0.804,1.221,124.000
5.207,0.781,1.216,126.000
5.191,0.760,1.211,124.000
5.182,0.741,1.208,122.000
5.180,0.723,1.208,123.000
5.175,0.703,1.206,122.000
5.158,0.683,1.201,124.000
5.145,0.664,1.198,124.000
5.132,0.644,1.194,126.000
5.126,0.624,1.192,126.000
5.121,0.605,1.190,126.000
5.094,0.585,1.184,127.000
5.080,0.565,1.180,128.000
5.071,0.546,1.177,127.000
5.067,0.528,1.176,123.000
5.055,0.509,1.173,128.000
5.037,0.489,1.168,129.000
5.027,0.472,1.166,127.000
5.015,0.453,1.163,126.000
5.017,0.435,1.163,124.000
5.010,0.417,1.161,124.000
4.998,0.398,1.158,127.000
4.980,0.379,1.153,128.000
4.974,0.362,1.151,128.000
4.967,0.344,1.149,128.000
4.961,0.326,1.148,130.000
4.934,0.307,1.141,129.000
4.918,0.290,1.137,131.000
4.915,0.272,1.136,131.000
4.908,0.255,1.135,132.000
4.899,0.237,1.132,129.000
4.885,0.218,1.129,130.000
4.866,0.201,1.124,130.000
4.859,0.183,1.123,129.000
4.859,0.166,1.123,129.000
4.852,0.150,1.121,128.000
4.841,0.133,1.118,129.000
4.824,0.115,1.114,126.000
4.818,0.098,1.113,127.000
4.815,0.082,1.112,128.000
4.811,0.065,1.111,129.000
4.792,0.048,1.106,129.000
4.786,0.031,1.105,131.000
4.774,0.016,1.102,131.000
4.771,-0.001,1.101,131.000
4.763,-0.017,1.100,131.000
4.739,-0.034,1.094,132.000
4.727,-0.051,1.091,133.000
4.715,-0.067,1.089,133.000
4.719,-0.084,1.090,132.000
4.713,-0.100,1.088,130.000
4.691,-0.116,1.083,133.000
4.679,-0.132,1.081,131.000
4.675,-0.148,1.080,131.000
4.668,-0.164,1.078,130.000
4.668,-0.180,1.078,17.000
4.651,-0.196,1.075,14.000
4.637,-0.211,1.072,17.000
0,0,0,0
4.655,-0.245,1.076,123.000
4.650,-0.261,1.075,124.000
4.638,-0.276,1.073,119.000
4.625,-0.291,1.070,123.000
4.620,-0.307,1.069,123.000
4.615,-0.323,1.068,123.000
4.614,-0.338,1.068,123.000
4.599,-0.353,1.065,127.000
4.586,-0.368,1.062,127.000
4.581,-0.384,1.061,127.000
4.568,-0.398,1.059,128.000
4.571,-0.414,1.060,127.000
4.557,-0.428,1.057,128.000
4.533,-0.442,1.051,129.000
4.527,-0.459,1.051,128.000
4.525,-0.475,1.051,127.000
4.520,-0.489,1.050,128.000
4.499,-0.502,1.045,129.000
4.485,-0.517,1.042,128.000
4.484,-0.533,1.042,127.000
4.474,-0.546,1.041,127.000
4.474,-0.562,1.041,124.000
4.455,-0.575,1.037,127.000
4.439,-0.589,1.034,126.000
4.437,-0.605,1.034,126.000
4.429,-0.619,1.033,127.000
4.433,-0.636,1.034,126.000
4.411,-0.649,1.029,124.000
4.398,-0.661,1.027,124.000
4.399,-0.677,1.028,123.000
4.393,-0.693,1.027,124.000
4.394,-0.709,1.028,123.000
4.376,-0.721,1.024,124.000
4.362,-0.734,1.021,124.000
4.367,-0.750,1.023,124.000
4.361,-0.765,1.022,124.000
4.359,-0.779,1.022,126.000
4.344,-0.792,1.019,126.000
4.332,-0.805,1.017,128.000
4.325,-0.820,1.016,128.000
4.319,-0.834,1.015,128.000
4.319,-0.850,1.016,127.000
4.297,-0.861,1.012,129.000
4.287,-0.874,1.010,129.000
4.284,-0.889,1.010,129.000
4.280,-0.904,1.010,128.000
4.273,-0.918,1.009,129.000
4.255,-0.930,1.006,127.000
4.240,-0.942,1.003,129.000
4.237,-0.956,1.003,129.000
4.234,-0.971,1.003,129.000
4.223,-0.984,1.001,129.000
4.191,-0.992,0.994,26.000
4.168,-1.002,0.990,26.000
4.169,-1.018,0.991,26.000
4.193,-1.039,0.997,110.000
4.161,-1.047,0.991,36.000
4.150,-1.059,0.989,35.000
4.162,-1.078,0.992,37.000
7.287,-1.914,1.739,27.000
7.280,-1.940,1.739,34.000
7.269,-1.964,1.738,105.000
7.251,-1.986,1.736,105.000
7.229,-2.008,1.732,114.000
7.226,-2.034,1.733,111.000
7.215,-2.058,1.732,111.000
7.208,-2.083,1.732,111.000
7.174,-2.101,1.726,114.000
7.157,-2.123,1.724,116.000
7.146,-2.147,1.723,113.000
7.144,-2.173,1.724,111.000
7.140,-2.199,1.725,114.000
7.107,-2.215,1.719,111.000
7.096,-2.239,1.718,114.000
7.080,-2.261,1.716,111.000
7.072,-2.286,1.716,111.000
7.064,-2.312,1.716,111.000
7.045,-2.333,1.713,111.000
7.033,-2.356,1.712,114.000
7.017,-2.378,1.711,108.000
7.009,-2.402,1.711,111.000
7.004,-2.428,1.711,108.000
6.981,-2.446,1.708,108.000
6.960,-2.466,1.705,102.000
6.957,-2.492,1.706,105.000
0,0,0,0
3.951,-1.447,0.971,34.000
3.920,-1.451,0.965,40.000
3.913,-1.465,0.965,46.000
3.908,-1.478,0.965,128.000
3.907,-1.493,0.965,131.000
3.905,-1.508,0.966,132.000
3.885,-1.516,0.963,131.000
3.873,-1.526,0.961,133.000
3.874,-1.543,0.963,132.000
3.865,-1.555,0.962,133.000
3.867,-1.572,0.964,132.000
3.847,-1.579,0.960,132.000
3.835,-1.589,0.958,132.000
3.836,-1.606,0.960,133.000
3.834,-1.620,0.961,132.000
3.828,-1.634,0.961,131.000
3.808,-1.641,0.957,133.000
3.799,-1.653,0.956,132.000
3.797,-1.668,0.957,133.000
3.773,-1.673,0.953,35.000
3.783,-1.693,0.957,129.000
3.758,-1.698,0.952,136.000
3.738,-1.704,0.948,135.000
3.742,-1.722,0.951,136.000
3.728,-1.730,0.949,135.000
3.739,-1.752,0.953,137.000
3.710,-1.755,0.947,134.000
3.707,-1.769,0.948,136.000
3.707,-1.785,0.950,137.000
3.692,-1.793,0.947,134.000
3.705,-1.815,0.952,137.000
3.679,-1.818,0.947,133.000
3.673,-1.831,0.947,136.000
3.656,-1.839,0.945,133.000
3.663,-1.859,0.948,135.000
3.662,-1.874,0.950,137.000
3.633,-1.875,0.944,135.000
3.630,-1.890,0.945,135.000
3.630,-1.906,0.947,136.000
3.629,-1.921,0.948,137.000
3.613,-1.929,0.946,135.000
3.615,-1.947,0.948,137.000
3.583,-1.945,0.941,135.000
3.598,-1.970,0.947,137.000
3.587,-1.978,0.946,134.000
3.590,-1.997,0.948,136.000
3.566,-2.000,0.944,135.000
3.562,-2.015,0.945,136.000
3.567,-2.034,0.948,137.000
3.551,-2.041,0.946,134.000
3.558,-2.061,0.949,136.000
3.541,-2.067,0.947,136.000
3.526,-2.076,0.945,135.000
3.519,-2.089,0.945,135.000
3.519,-2.104,0.947,136.000
3.502,-2.111,0.944,133.000
3.502,-2.128,0.946,137.000
3.483,-2.134,0.943,133.000
3.486,-2.151,0.946,136.000
3.485,-2.168,0.947,136.000
3.484,-2.184,0.949,136.000
3.460,-2.186,0.945,133.000
3.456,-2.199,0.946,40.000
3.484,-2.234,0.956,124.000
3.467,-2.240,0.953,131.000
3.472,-2.261,0.956,133.000
3.448,-2.262,0.952,133.000
3.436,-2.272,0.951,132.000
3.435,-2.288,0.953,133.000
3.440,-2.309,0.956,132.000
3.429,-2.319,0.956,131.000
3.414,-2.326,0.954,131.000
3.399,-2.334,0.952,131.000
3.401,-2.353,0.955,132.000
3.399,-2.369,0.956,133.000
3.394,-2.383,0.957,133.000
3.375,-2.389,0.955,132.000
3.367,-2.401,0.955,132.000
3.362,-2.414,0.956,132.000
3.363,-2.433,0.958,131.000
3.355,-2.444,0.958,131.000
3.343,-2.453,0.957,132.000
3.329,-2.460,0.956,132.000
3.326,-2.477,0.957,132.000
3.323,-2.493,0.959,132.000
3.327,-2.514,0.963,133.000
3.310,-2.518,0.960,131.000
3.298,-2.527,0.959,132.000
3.291,-2.542,0.960,132.000
3.292,-2.561,0.963,132.000
3.289,-2.577,0.965,131.000
3.271,-2.581,0.962,132.000
3.259,-2.589,0.961,132.000
3.256,-2.605,0.963,131.000
3.256,-2.624,0.965,132.000
3.250,-2.638,0.966,131.000
3.238,-2.647,0.965,131.000
3.226,-2.655,0.965,132.000
3.219,-2.670,0.965,132.000
3.217,-2.687,0.968,130.000
3.216,-2.704,0.970,131.000
3.200,-2.710,0.968,131.000
3.187,-2.719,0.967,132.000
3.187,-2.738,0.970,131.000
3.181,-2.751,0.971,131.000
3.177,-2.767,0.973,131.000
3.163,-2.775,0.971,130.000
3.153,-2.786,0.971,130.000
3.150,-2.801,0.973,129.000
3.149,-2.820,0.976,130.000
3.142,-2.834,0.977,129.000
3.126,-2.839,0.975,130.000
3.113,-2.848,0.974,129.000
3.109,-2.864,0.976,129.000
3.107,-2.883,0.979,129.000
3.097,-2.893,0.979,128.000
3.091,-2.906,0.979,128.000
3.075,-2.912,0.978,130.000
3.070,-2.928,0.979,129.000
3.066,-2.944,0.981,130.000
3.058,-2.957,0.982,128.000
3.046,-2.967,0.982,131.000
3.032,-2.973,0.980,130.000
3.030,-2.991,0.983,129.000
3.029,-3.012,0.986,131.000
3.022,-3.025,0.987,131.000
3.008,-3.031,0.986,130.000
2.994,-3.038,0.985,130.000
2.990,-3.056,0.987,131.000
2.985,-3.072,0.989,131.000
2.980,-3.088,0.991,132.000
2.966,-3.095,0.990,131.000
2.956,-3.108,0.990,130.000
2.952,-3.125,0.992,131.000
2.947,-3.140,0.994,132.000
2.944,-3.159,0.997,131.000
2.930,-3.167,0.996,133.000
2.917,-3.174,0.995,132.000
2.911,-3.189,0.997,132.000
2.905,-3.205,0.999,131.000
2.905,-3.227,1.002,132.000
2.891,-3.234,1.001,131.000
2.879,-3.244,1.001,131.000
2.878,-3.266,1.005,123.000
2.870,-3.279,1.006,131.000
2.867,-3.299,1.009,130.000
2.855,-3.307,1.009,132.000
2.841,-3.314,1.008,131.000
2.842,-3.339,1.012,132.000
2.835,-3.355,1.014,131.000
2.827,-3.369,1.015,130.000
2.815,-3.379,1.015,130.000
2.804,-3.389,1.015,130.000
2.802,-3.411,1.019,129.000
2.792,-3.424,1.020,129.000
2.785,-3.439,1.022,128.000
2.771,-3.446,1.021,128.000
2.763,-3.462,1.023,127.000
2.756,-3.477,1.024,127.000
2.746,-3.490,1.025,129.000
2.740,-3.505,1.027,129.000
2.728,-3.514,1.027,128.000
2.715,-3.525,1.027,128.000
2.707,-3.541,1.029,129.000
2.699,-3.556,1.031,129.000
2.699,-3.581,1.035,129.000
2.682,-3.584,1.033,130.000
2.675,-3.601,1.036,131.000
2.664,-3.611,1.036,130.000
2.661,-3.633,1.040,130.000
2.654,-3.650,1.042,131.000
2.641,-3.660,1.042,131.000
2.631,-3.674,1.043,130.000
2.621,-3.686,1.044,130.000
2.620,-3.713,1.049,132.000
2.616,-3.735,1.053,131.000
2.599,-3.738,1.051,131.000
2.588,-3.750,1.052,131.000
2.582,-3.768,1.055,131.000
2.579,-3.792,1.059,129.000
2.572,-3.810,1.061,129.000
2.559,-3.819,1.061,129.000
2.547,-3.831,1.062,129.000
2.541,-3.850,1.065,128.000
2.535,-3.872,1.069,127.000
2.525,-3.886,1.070,126.000
2.510,-3.891,1.069,124.000
2.498,-3.903,1.070,124.000
2.493,-3.927,1.074,128.000
2.482,-3.939,1.075,127.000
2.477,-3.960,1.078,128.000
2.465,-3.972,1.079,130.000
2.452,-3.985,1.080,129.000
2.440,-3.997,1.081,128.000
2.435,-4.018,1.085,128.000
2.437,-4.054,1.092,46.000
2.417,-4.054,1.090,20.000
4.035,-6.819,1.829,42.000
4.029,-6.859,1.837,63.000
4.133,-7.092,1.895,28.000
4.131,-7.149,1.906,28.000
4.076,-7.111,1.892,27.000
4.025,-7.077,1.880,22.000
3.981,-7.057,1.871,24.000
3.933,-7.031,1.860,26.000
3.887,-7.007,1.850,26.000
3.837,-6.973,1.837,23.000
3.790,-6.945,1.827,26.000
3.747,-6.924,1.818,25.000
3.704,-6.903,1.809,24.000
3.661,-6.877,1.799,13.000
3.614,-6.845,1.787,12.000
3.568,-6.816,1.776,13.000
3.524,-6.791,1.766,13.000
3.489,-6.776,1.760,13.000
3.449,-6.757,1.751,13.000
3.407,-6.733,1.742,10.000
2.233,-4.450,1.149,18.000
2.213,-4.451,1.148,26.000
2.200,-4.462,1.149,21.000
2.192,-4.484,1.152,21.000
2.173,-4.484,1.150,21.000
2.164,-4.506,1.154,15.000
2.162,-4.543,1.162,29.000
2.165,-4.590,1.172,109.000
2.149,-4.597,1.172,111.000
2.134,-4.608,1.172,111.000
2.123,-4.626,1.175,111.000
2.115,-4.651,1.180,111.000
2.103,-4.669,1.182,111.000
2.093,-4.691,1.186,108.000
2.080,-4.705,1.188,108.000
2.072,-4.726,1.191,105.000
2.060,-4.744,1.194,105.000
2.052,-4.771,1.199,49.000
2.041,-4.792,1.203,46.000
2.027,-4.807,1.204,46.000
2.011,-4.814,1.204,46.000
2.001,-4.839,1.209,49.000
1.990,-4.860,1.212,48.000
1.980,-4.885,1.217,102.000
1.966,-4.901,1.219,105.000
1.955,-4.918,1.222,108.000
1.944,-4.940,1.226,105.000
1.934,-4.965,1.230,108.000
1.925,-4.993,1.235,105.000
1.911,-5.009,1.238,49.000
1.895,-5.019,1.239,102.000
1.884,-5.044,1.243,48.000
1.874,-5.071,1.248,45.000
1.864,-5.095,1.253,45.000
1.848,-5.109,1.254,45.000
1.834,-5.129,1.257,46.000
1.822,-5.150,1.261,48.000
1.812,-5.176,1.266,105.000
1.801,-5.204,1.271,105.000
1.783,-5.211,1.271,105.000
1.769,-5.230,1.275,49.000
1.760,-5.262,1.281,49.000
1.748,-5.290,1.286,48.000
1.735,-5.313,1.290,108.000
1.709,-5.295,1.284,16.000
1.695,-5.311,1.287,11.000
1.681,-5.332,1.291,26.000
1.672,-5.370,1.298,117.000
1.659,-5.394,1.303,111.000
1.642,-5.404,1.304,111.000
1.626,-5.420,1.307,114.000
1.615,-5.452,1.313,114.000
1.601,-5.477,1.317,118.000
1.590,-5.508,1.324,117.000
1.573,-5.521,1.325,111.000
1.560,-5.541,1.329,111.000
1.548,-5.575,1.336,102.000
1.541,-5.629,1.347,49.000
1.527,-5.655,1.352,108.000
1.507,-5.655,1.351,34.000
1.476,-5.619,1.341,33.000
1.454,-5.614,1.339,31.000
1.431,-5.604,1.335,31.000
1.406,-5.592,1.331,31.000
1.378,-5.565,1.324,31.000
1.352,-5.541,1.317,31.000
1.331,-5.539,1.315,31.000
1.309,-5.526,1.311,30.000
1.286,-5.511,1.307,31.000
1.262,-5.497,1.302,29.000
1.238,-5.482,1.298,29.000
1.215,-5.475,1.295,30.000
1.192,-5.464,1.291,31.000
1.170,-5.453,1.288,31.000
1.147,-5.436,1.283,31.000
1.123,-5.409,1.275,33.000
1.102,-5.402,1.273,32.000
1.081,-5.394,1.270,32.000
1.060,-5.390,1.268,31.000
1.036,-5.371,1.263,33.000
1.014,-5.354,1.258,31.000
0.995,-5.351,1.257,31.000
0.975,-5.349,1.255,30.000
0.954,-5.337,1.252,30.000
0.932,-5.323,1.248,31.000
0.910,-5.307,1.243,31.000
0.889,-5.293,1.239,31.000
0.868,-5.278,1.235,32.000
0.847,-5.262,1.230,32.000
0.823,-5.238,1.224,31.000
0.801,-5.218,1.219,31.000
0.783,-5.217,1.218,31.000
0.763,-5.202,1.214,31.000
0.744,-5.199,1.212,32.000
0.722,-5.176,1.207,30.000
0.702,-5.165,1.203,32.000
0.683,-5.160,1.202,32.000
0.663,-5.151,1.199,33.000
0.645,-5.145,1.197,33.000
0.625,-5.124,1.192,34.000
0.604,-5.103,1.186,32.000
0.584,-5.094,1.184,34.000
0.565,-5.084,1.181,33.000
0.548,-5.082,1.180,34.000
0.527,-5.057,1.174,32.000
0.507,-5.039,1.169,34.000
0.490,-5.041,1.169,32.000
0.472,-5.027,1.166,32.000
0.453,-5.019,1.163,31.000
0.434,-5.007,1.160,31.000
0.415,-4.989,1.156,34.000
0.397,-4.987,1.155,33.000
0.379,-4.986,1.154,34.000
0.362,-4.978,1.152,34.000
0.343,-4.957,1.147,36.000
0.326,-4.943,1.144,37.000
0.308,-4.932,1.141,35.000
0.290,-4.926,1.139,36.000
0.273,-4.931,1.140,36.000
0.254,-4.908,1.135,34.000
0.236,-4.893,1.131,35.000
0.218,-4.886,1.129,34.000
0.201,-4.883,1.128,35.000
0.184,-4.880,1.127,35.000
0.166,-4.853,1.121,34.000
0.149,-4.840,1.118,32.000
0.132,-4.837,1.117,33.000
0.117,-4.839,1.118,35.000
0.099,-4.830,1.115,33.000
0.082,-4.819,1.113,34.000
0.065,-4.805,1.109,34.000
0.049,-4.794,1.107,36.000
0.033,-4.798,1.108,35.000
0.016,-4.786,1.105,35.000
-0.001,-4.767,1.100,37.000
-0.019,-4.755,1.098,37.000
-0.036,-4.751,1.097,37.000
-0.052,-4.747,1.096,37.000
-0.069,-4.745,1.096,38.000
-0.084,-4.723,1.091,36.000
-0.100,-4.711,1.088,36.000
-0.117,-4.703,1.086,36.000
-0.133,-4.706,1.087,37.000
-0.149,-4.702,1.086,35.000
-0.164,-4.674,1.080,36.000
-0.180,-4.664,1.078,34.000
-0.196,-4.665,1.078,34.000
-0.213,-4.655,1.076,34.000
-0.229,-4.654,1.076,33.000
-0.243,-4.630,1.070,32.000
-0.259,-4.613,1.067,33.000
-0.275,-4.616,1.068,33.000
-0.291,-4.605,1.065,35.000
-0.306,-4.599,1.064,34.000
-0.321,-4.584,1.061,35.000
-0.336,-4.571,1.058,36.000
-0.351,-4.562,1.056,37.000
-0.367,-4.561,1.056,37.000
-0.383,-4.556,1.055,36.000
-0.398,-4.535,1.051,37.000
-0.413,-4.530,1.050,40.000
-0.427,-4.520,1.048,39.000
0,0,0,0
0,0,0,0
-0.358,-3.405,0.790,72.000
-0.369,-3.392,0.788,74.000
-0.381,-3.395,0.789,74.000
-0.391,-3.390,0.788,74.000
-0.403,-3.388,0.788,102.000
-0.413,-3.371,0.784,74.000
-0.424,-3.362,0.782,74.000
-0.434,-3.349,0.780,69.000
-0.447,-3.355,0.781,74.000
-0.459,-3.354,0.781,102.000
-0.468,-3.337,0.778,102.000
-0.477,-3.320,0.774,74.000
-0.489,-3.318,0.774,102.000
-0.501,-3.316,0.774,69.000
-0.513,-3.314,0.774,74.000
-0.523,-3.305,0.772,102.000
-0.533,-3.291,0.770,72.000
-0.543,-3.290,0.770,74.000
-0.554,-3.288,0.770,72.000
-0.566,-3.282,0.769,69.000
-0.576,-3.272,0.767,74.000
-0.585,-3.263,0.765,72.000
-0.597,-3.261,0.765,72.000
-0.608,-3.259,0.765,69.000
-0.619,-3.256,0.765,72.000
-0.629,-3.241,0.762,66.000
-0.638,-3.227,0.759,68.000
-0.650,-3.231,0.761,69.000
-0.661,-3.228,0.761,69.000
-0.673,-3.226,0.761,72.000
-0.681,-3.210,0.758,66.000
-0.690,-3.200,0.756,68.000
-0.703,-3.205,0.758,65.000
-0.713,-3.199,0.757,66.000
-0.725,-3.203,0.758,69.000
-0.733,-3.187,0.755,68.000
-0.742,-3.175,0.753,72.000
-0.755,-3.176,0.754,69.000
-0.766,-3.173,0.754,69.000
-0.776,-3.168,0.753,68.000
-0.785,-3.156,0.751,74.000
-0.795,-3.150,0.750,72.000
-0.806,-3.147,0.750,72.000
-0.817,-3.144,0.750,74.000
-0.828,-3.141,0.750,74.000
-0.837,-3.131,0.748,86.000
-0.844,-3.117,0.745,102.000
-0.856,-3.117,0.746,102.000
-0.867,-3.114,0.746,84.000
-0.880,-3.119,0.748,86.000
-0.886,-3.101,0.745,102.000
-0.895,-3.092,0.743,105.000
-0.906,-3.087,0.743,86.000
-0.918,-3.088,0.744,102.000
-0.929,-3.086,0.744,105.000
-0.936,-3.070,0.741,102.000
-0.944,-3.058,0.739,108.000
-0.955,-3.058,0.740,105.000
-0.964,-3.049,0.738,86.000
-0.978,-3.055,0.741,105.000
-0.985,-3.040,0.738,105.000
-0.992,-3.030,0.736,111.000
-1.003,-3.026,0.736,108.000
-1.014,-3.027,0.737,105.000
-1.024,-3.021,0.736,86.000
-1.032,-3.006,0.734,84.000
-1.041,-3.001,0.733,108.000
-1.050,-2.994,0.732,105.000
-1.063,-2.998,0.734,105.000
-1.074,-2.993,0.734,108.000
-1.082,-2.982,0.732,105.000
-1.089,-2.972,0.731,105.000
-1.102,-2.975,0.732,105.000
-1.111,-2.968,0.732,108.000
-1.124,-2.971,0.733,108.000
-1.130,-2.956,0.731,105.000
-1.136,-2.941,0.728,79.000
-1.165,-2.986,0.740,30.000
-1.209,-3.068,0.761,24.000
-1.251,-3.143,0.781,29.000
-1.296,-3.222,0.802,25.000
-1.332,-3.279,0.817,29.000
-1.382,-3.368,0.840,24.000
