# This PCD file was generated using the MATLAB® pcwrite function
# from Computer Vision Toolbox®.
# .PCD v.7 - Point Cloud Data file format
VERSION .7
FIELDS x y z
SIZE 8 8 8
TYPE F F F
COUNT 1 1 1
WIDTH 331
HEIGHT 1
VIEWPOINT 0 0 0 1 0 0 0
POINTS 331
DATA ascii
3.564964668997051 0.598489540188218 0.443848148681547
3.585718498872937 0.603260716102901 0.318118461028952
3.561155574026200 0.585076372456264 0.443116932621116
3.601563860285160 0.593006401634208 0.319338641427420
3.576895776152607 0.574846947628340 0.444823103428788
3.605578934022394 0.580747813990556 0.319512952912915
3.588587253545235 0.564524790548687 0.446041796862840
3.597644554029330 0.567236567885212 0.318641395485438
3.586611866897336 0.551391571041579 0.445554319489219
3.589756920755783 0.553157825495194 0.317769838057962
3.594403979169929 0.539752957645015 0.446285535549650
3.589695736629449 0.540327308143424 0.317595526572466
3.578589274826335 0.524611473065096 0.444091887368357
3.603387271777505 0.529531708847508 0.318641395485438
3.588259078997900 0.513240964887248 0.445066842115599
3.609158164470453 0.517515905032339 0.318990018456429
3.588196916682172 0.499818557638545 0.573801617767567
3.597893010413385 0.501809327404222 0.446041796862840
3.608969451168559 0.504638529564211 0.318815706970934
3.593834601020775 0.487821764184813 0.574427355627728
3.597655725299290 0.488979931641080 0.445798058176029
3.604786549936460 0.491230740449194 0.318292772514448
3.609307126640431 0.476456079421209 0.576617438138291
3.593436881059804 0.475637349131074 0.445066842115599
3.604504232810056 0.478382566997332 0.318118461028952
3.614866834428268 0.464357712452126 0.577243175998452
3.589249433620099 0.461703752070479 0.444335626055168
3.618089491559464 0.466697505414055 0.319164329941924
3.600863016353071 0.449149431409978 0.574740224557808
3.592808955291658 0.449418512326413 0.444579364741978
3.615742735281165 0.453569197863018 0.318815706970934
3.612610589511620 0.453816747788354 0.190816896461773
3.600295343877552 0.437596446466554 0.574427355627728
3.604132266231081 0.438701149803026 0.445798058176029
3.609316114522529 0.440610746805574 0.318118461028952
3.625990630587195 0.443288604028107 0.191444927936689
3.605798643690692 0.424860072057115 0.575053093487889
3.613527154385292 0.427049621757931 0.446773012923271
3.598960914894399 0.426602044523137 0.317072592115980
3.625532572887094 0.430393389074786 0.191340256024203
3.613075388513534 0.413574416675502 0.575991700278130
3.607107122989878 0.413529073466622 0.445798058176029
3.620221555364993 0.416312905227896 0.318815706970934
3.625028695504166 0.417506776161552 0.191235584111717
3.615871110009460 0.399834679823272 0.707138136865475
3.620457060722402 0.400981411353819 0.576930307068371
3.598663874676042 0.399839349673379 0.444579364741978
3.621652702968214 0.403673437411552 0.318815706970934
3.626463981207907 0.404850521021210 0.191235584111717
3.619129193670629 0.388051125509476 0.707519754856228
3.613842732827632 0.388760318868392 0.575678831348050
3.601943670830295 0.388116218189290 0.444823103428788
3.626933115717561 0.392089663985204 0.319164329941924
3.627786574385931 0.392822507087672 0.191235584111717
3.624367264080019 0.375820622046045 0.708282990837734
3.605353890256247 0.375121156665475 0.574114486697647
3.624994883917271 0.377804257010568 0.447504228983702
3.616390165625946 0.378183572774536 0.318118461028952
3.627149288479994 0.379948698485681 0.191130912199231
3.619859831951570 0.361948134977897 0.707138136865475
3.620526457608866 0.362653020480926 0.576304569208210
3.618454701235917 0.363721297635363 0.446529274236460
3.611804997550963 0.364326421176185 0.317595526572466
3.636466066924197 0.367455160402575 0.191549599849174
3.617192847172957 0.348933239692007 0.706374900883969
3.621770295401884 0.350012815271514 0.576304569208210
3.611799000545224 0.350321749317707 0.445554319489219
3.615037745504847 0.351909688124451 0.317769838057962
3.637726570204174 0.354759286317068 0.191549599849174
3.622239657821381 0.337300336045597 0.707138136865475
3.626844737083391 0.338367660801841 0.576930307068371
3.601082182433840 0.337232132115460 0.444091887368357
3.616184843379821 0.339919856040619 0.317769838057962
3.630929150328915 0.341945141351112 0.191130912199231
3.624068836496920 0.325352288821823 0.576304569208210
3.616076954173530 0.325907276417027 0.445798058176029
3.629255056826943 0.328372163078248 0.318815706970934
3.636078845183381 0.329629394979397 0.191340256024203
3.652183573862068 0.313102580806844 0.846265866441620
3.636242291427732 0.313014585987051 0.709427844809994
3.631031934172300 0.313842968352310 0.577243175998452
3.634991750398208 0.314824404346339 0.447991706357322
3.626409382113124 0.315356480400333 0.318467083999943
3.629193186265236 0.316875009263107 0.190921568374259
3.639658944584470 0.299234435498546 0.843116551680806
3.628220538746840 0.300206682554580 0.576617438138291
3.628155449002213 0.301476469488955 0.447016751610081
3.639401021297389 0.303690103724823 0.319512952912915
3.648243028203395 0.305069107218922 0.191863615586632
3.627082163943638 0.285457557095495 0.839967236919992
3.624638876121288 0.286538375681672 0.706756518874722
3.637123174601299 0.288164069887340 0.577868913858613
3.617312676763893 0.287865154035243 0.445554319489219
3.628522594750855 0.290031887541855 0.318467083999943
3.653216321703292 0.293289081118840 0.192072959411604
3.649648309118898 0.293643730717175 0.063910712373332
3.626113244657224 0.272648824447837 0.839517334811304
3.627574675732883 0.274032164849121 0.707138136865475
3.645985850075520 0.276062955542808 0.579120389578935
3.624233597442465 0.275688323888430 0.446285535549650
3.641432471325732 0.278275097152873 0.319512952912915
3.636295240719242 0.279159267667184 0.191130912199231
3.648657280324127 0.280748877016892 0.063875807560458
3.619267863617094 0.259432346292941 0.837717726376553
3.638300030350352 0.262073152737986 0.709046226819241
3.627179039127089 0.262544813941919 0.575991700278130
3.625173849209083 0.263035708164805 0.446285535549650
3.646355877674109 0.265852187548920 0.319861575883905
3.633310093645290 0.265538543614222 0.190921568374259
3.661580998897039 0.268889700410573 0.064085236437705
3.622095629076270 0.246929707378442 0.838167628485241
3.637234009316349 0.249237303922359 0.708664608828487
3.620234024350749 0.248707223876630 0.574740224557808
3.639932567009172 0.251337101640550 0.447991706357322
3.639311226004444 0.252570645108946 0.319164329941924
3.638155510281422 0.253766541157048 0.191130912199231
3.670476588437228 0.256664726142708 0.064224855689203
3.636548255041469 0.235165026655676 0.841316943246055
3.632204497034659 0.236157337826686 0.707519754856228
3.638779389853430 0.237860393812029 0.577556044928532
3.626921827025914 0.237721015903449 0.446285535549650
3.634206456364310 0.239472532042945 0.318641395485438
3.650976502553150 0.241857572396937 0.191758943674146
3.659378359747781 0.243055642476621 0.064015426811956
3.631047160801893 0.223356601476071 0.707138136865475
3.635644293815233 0.224913293592732 0.576930307068371
3.619804398993783 0.224567583704057 0.445310580802409
3.635020230667800 0.226785325184206 0.318641395485438
3.659771859202644 0.229612056754616 0.192177631324090
3.652221490291940 0.229778299798347 0.063875807560458
3.638137939830118 0.209136634226958 0.841316943246055
3.631841414628894 0.210046648097079 0.707138136865475
3.652220553008553 0.212504426108076 0.579433258509015
3.630511768797062 0.211877096156924 0.446529274236460
3.649749775897782 0.214278196761016 0.319861575883905
3.648626138829242 0.215490254651188 0.191549599849174
3.663020119849015 0.216981926897281 0.064050331624830
3.635193463623182 0.199420424759522 0.447016751610081
3.652464870815368 0.201646716450721 0.320035887369401
3.645367744177589 0.202531271990753 0.191340256024203
3.667748405438403 0.204416833675834 0.064120141250580
3.645315928877793 0.184663738640635 0.842666649572118
3.639772969264316 0.186930596682420 0.577243175998452
3.643764624899407 0.187773239218843 0.447991706357322
3.658019850988040 0.190428323450303 0.191968287499118
3.668406109561376 0.192253017710453 0.064120141250580
3.655671201028119 0.172397077554167 0.844916160115557
3.655383233612710 0.173662325611676 0.711335934763759
3.646353060819610 0.173871164667274 0.578181782788693
3.648363489249916 0.175243465122671 0.448479183730943
3.643802505412483 0.176299268411505 0.319164329941924
3.656667375424262 0.177561421828789 0.191863615586632
3.673049464701660 0.179642088780278 0.064189950876329
3.662091363613219 0.159890361952473 0.846265866441620
3.642237668008057 0.160297354741722 0.708664608828487
3.650856461342876 0.161953551091970 0.578807520648854
3.646969849403172 0.162418913154521 0.448235445044132
3.648376476252980 0.163757627134622 0.319512952912915
3.663250606388871 0.165065904444955 0.192177631324090
3.665663607764928 0.166456810394039 0.064050331624830
3.647049812697647 0.146480651967957 0.842666649572118
3.656506536400840 0.148138911740645 0.711335934763759
3.665241733387655 0.149133567503985 0.580997603159417
3.639580887316381 0.149362038352076 0.447260490296891
3.666842036188483 0.151762931652387 0.321081756282373
3.659813403731431 0.152111887972016 0.191968287499118
3.680207907212516 0.154246412284110 0.064294665314952
3.643644043830076 0.133606361836308 0.841766845354743
3.664849003419254 0.135664922557801 0.712862406726771
3.645976135471032 0.136240735360559 0.577868913858613
3.644047474292605 0.136805564757485 0.447747967670512
3.673322329861294 0.139188662746505 0.321604690738859
3.652338822216563 0.139031933480581 0.191549599849174
3.678725685136218 0.141322385697675 0.064259760502078
3.702970606514527 0.135134612997031 -0.064678618256573
3.651878893712952 0.121145299928980 0.843566453789494
3.671186691338868 0.123068716599488 0.714007260699031
3.648425249499442 0.122943177387887 0.578181782788693
3.660374355969497 0.124625011270550 0.449697877164994
3.661838538900946 0.125954582169075 0.320558821825887
3.664778282550135 0.126696084262872 0.192177631324090
3.695184398105375 0.129038682595741 0.064538999005074
3.683433679270471 0.121548495766800 -0.064329570127827
3.665876495773685 0.110081447221199 0.846715768550308
3.651931714700784 0.110938631354425 0.710191080791500
3.656671748528351 0.112360235173488 0.579433258509015
3.654795377668248 0.112941066895234 0.448966661104563
3.656241914312086 0.114263269790315 0.320035887369401
3.669150771527355 0.115307708299186 0.192386975149062
3.683579429742254 0.117048242989389 0.064329570127827
3.687794967222590 0.110095411417068 -0.064399379753576
3.655167349299095 0.100182762162195 0.448966661104563
3.664584981569914 0.101721040343178 0.320733133311382
3.677516838293347 0.102722346456571 0.192805662799005
3.679967770476125 0.104076373097815 0.064259760502078
3.700150810485998 0.097538102847673 -0.064608808630824
3.658520244129576 0.084940044783589 0.711335934763759
3.663306638065272 0.086330605673617 0.580371865299257
3.647571853990847 0.086596772508149 0.447991706357322
3.670908628066508 0.088432931135405 0.321256067767868
3.669881947930459 0.089049087851212 0.192386975149062
3.686321781530607 0.090735535368556 0.064364474940702
3.702482632994189 0.084021084786090 -0.064643713443698
3.670571686617933 0.072401211785294 0.713625642708278
3.661610691200643 0.073503107528398 0.580058996369176
3.651821281839910 0.073944217225872 0.448479183730943
3.675178885922823 0.075700590234427 0.321604690738859
3.668173600770854 0.076196787792049 0.192282303236576
3.663830610067396 0.060114546511104 0.580371865299257
3.665950842850104 0.061429344498780 0.450185354538615
3.671436543923849 0.062803207424689 0.321256067767868
3.692863550976153 0.065103897675751 0.064469189379325
3.694981184396123 0.058045402841816 -0.064504094192200
3.669024594059595 0.046749218074457 0.713244024717524
3.673894187327730 0.047452585482204 0.581936209949659
3.680037360743484 0.048816727177615 0.451891525346287
3.659680171730718 0.049824383491697 0.320210198854896
3.680598574905118 0.050751681429392 0.192910334711491
3.693068307800225 0.052213001660084 0.064469189379325
3.683164012659666 0.045000576227300 -0.064294665314952
3.663275915212719 0.033887166395564 0.712099170745265
3.674037445141769 0.034628012440437 0.581936209949659
3.668275357945952 0.035854292108738 0.450429093225425
3.671785519143664 0.037170422774244 0.321256067767868
3.690739073759878 0.038006517094062 0.193433694273920
3.681230573389399 0.039193733215543 0.064259760502078
3.701295228121538 0.032300714110383 -0.064608808630824
3.667298329174826 0.021122355627342 0.712862406726771
3.664408058154123 0.023024457861023 0.449941615851804
3.679862280666509 0.024406128720534 0.321953313709849
3.692846468817991 0.025136796780575 0.193538366186406
3.697342111270446 0.026458076907164 0.064538999005074
3.721382108887643 0.019485289224552 -0.064957856759569
3.673237954897652 0.008975431375722 0.714007260699031
3.674186300936634 0.010260290395915 0.581936209949659
3.676374763241467 0.010908055515987 0.451404047972666
3.683907738056883 0.012216345459886 0.322301936680840
3.684918232195075 0.013505991200109 0.193119678536463
3.715406646015315 0.014266207496424 0.064853142320946
3.709428112783368 0.007121599482520 -0.064748427882322
3.686315901883594 -0.001930150669083 0.452622741406718
3.677950769336330 -0.000641923513030 0.321779002224354
3.688937501383396 0.000000000000000 0.193329022361435
3.713434113575482 0.001296233089402 0.064818237508071
3.707430679775928 -0.005823623283378 -0.064713523069447
3.683024298175327 -0.017355971589831 0.715915350652796
3.680088866284262 -0.016699828174032 0.582874816739900
3.680328842592424 -0.015416215570467 0.451891525346287
3.694906767818318 -0.012897710115468 0.193643038098892
3.703415500111996 -0.012281035885749 0.064643713443698
3.719382440908660 -0.019474818891813 -0.064922951946695
3.686867652911312 -0.030244228806406 0.716678586634302
3.691860030753034 -0.029640788862633 0.584752030320383
3.682237641904193 -0.028278110997180 0.452135264033097
3.683829016948427 -0.027004360769484 0.322301936680840
3.686747087784736 -0.042470156235013 0.716678586634302
3.693723946484970 -0.041261008574024 0.585064899250463
3.676168705207515 -0.040423215196191 0.451404047972666
3.705634253603634 -0.039453557019763 0.324219363021288
3.688735234599609 -0.038629757132810 0.193329022361435
3.701246519899013 -0.037468664010753 0.064608808630824
3.690502444779487 -0.055397980453596 0.717441822615808
3.687622429373095 -0.054710993786891 0.584126292460222
3.685929625477317 -0.053398969934891 0.452622741406718
3.691528626893258 -0.052191233483854 0.322999182622821
3.686589782569099 -0.050834294041594 0.193224350448949
3.709091220962208 -0.050497085736187 0.064748427882322
3.691359076076474 -0.067655262205026 0.584752030320383
3.689678681380017 -0.066980279236867 0.453110218780338
3.691312541176105 -0.065721011716156 0.322999182622821
3.722877004856154 -0.064333099229389 0.064992761572444
3.691100426117001 -0.080540097809022 0.584752030320383
3.693391652654166 -0.079945169637373 0.453597696153959
3.693052581040321 -0.078648117442473 0.323173494108316
3.710093487842573 -0.077715379895978 0.194480413398779
3.726628287597142 -0.077411032223288 0.065062571198193
3.698695777831388 -0.093623896310007 0.586003506040705
3.689121159749049 -0.092737254265263 0.453110218780338
3.694747326072015 -0.091588171186920 0.323347805593812
3.711796270249863 -0.090714346900641 0.194585085311265
3.716339833985660 -0.090176380890990 0.064888047133820
3.710193781487960 -0.106875456984967 0.587880719621188
3.692743529266087 -0.105727749939479 0.453597696153959
3.704363079294476 -0.104766318070373 0.324219363021288
3.705467563448670 -0.103503080903037 0.194271069573807
3.735991672997218 -0.103703137354429 0.065237095262566
3.701942237059975 -0.118278500462616 0.586629243900866
3.700329516921226 -0.117580488407633 0.454572650901200
3.695122538636830 -0.115478350020494 0.193747710011378
3.715660031397586 -0.114821916085971 0.064888047133820
3.701483859454429 -0.131846002588804 0.586629243900866
3.709560303755554 -0.129540700283185 0.324742297477774
3.710665368246882 -0.128930870886848 0.194585085311265
3.701026290339607 -0.144119840463928 0.586629243900866
3.707352892119510 -0.143718169627489 0.455547605648441
3.705103680738652 -0.142335726073534 0.324393674506784
3.712188509150443 -0.141959046783116 0.194689757223751
3.704420377059813 -0.157852007972313 0.587254981761027
3.704845313722375 -0.156574551313877 0.455303866961631
3.727634537287368 -0.155582443962930 0.195527132523638
3.715716328652046 -0.170679294000945 0.589132195341509
3.700310160887354 -0.169324437090257 0.454816389588010
3.733874782777351 -0.169554261726382 0.327008346789213
3.711106992677790 -0.167871341598765 0.194689757223751
3.705201047496617 -0.183807558234721 0.587567850691107
3.713575383584421 -0.182923542185230 0.456522560395682
3.719330104612579 -0.181905589695140 0.325788166390746
3.714488186236927 -0.181018934691104 0.194899101048723
3.708482059711143 -0.196949524467018 0.588193588551268
3.716844626186836 -0.196743107030815 0.457010037769303
3.710679842610985 -0.195117910716295 0.325090920448765
3.711679693710978 -0.210764447044504 0.588819326411429
3.724062975429065 -0.210163511742745 0.457984992516544
3.705997620568892 -0.207846281098711 0.324742297477774
3.741015779178079 -0.209155253359459 0.196364507823525
3.706697124566479 -0.234504647680296 0.456035083022062
3.726370049932026 -0.234443331755439 0.326659723818223
3.723682105859644 -0.248632267416058 0.458228731203355
3.727516996727622 -0.247581405751276 0.326834035303718
3.728617603069869 -0.260730341939129 0.327008346789213
3.737741356810191 -0.275138452849118 0.460178640697837
3.735680745799371 -0.273675738706511 0.327705592731195
3.722903666843716 -0.287115450218940 0.458472469890165
3.721826330088621 -0.300758645780766 0.458472469890165
3.753486452096451 -0.301998349330286 0.329448707586148
3.730644172866157 -0.314582405454300 0.459691163324216
3.740497002770172 -0.314098309162523 0.328402838673176
3.733478302815644 -0.327950272221732 0.460178640697837
3.742195094768165 -0.341883566070478 0.461397334131888
3.743017041907074 -0.354478411021072 0.461641072818699
3.739781293186589 -0.367347763281101 0.461397334131888