# This PCD file was generated using the MATLAB® pcwrite function
# from Computer Vision Toolbox®.
# .PCD v.7 - Point Cloud Data file format
VERSION .7
FIELDS x y z
SIZE 8 8 8
TYPE F F F
COUNT 1 1 1
WIDTH 322
HEIGHT 1
VIEWPOINT 0 0 0 1 0 0 0
POINTS 322
DATA ascii
3.342993503026866 1.168734986527519 0.434829817269566
3.362394634059331 1.176835077290245 0.311668936065626
3.335795878823153 1.153167188362485 0.433367385148704
3.368364890178398 1.165742576888330 0.311843247551121
3.354828086161092 1.146652242525711 0.435317294643187
3.364873237737196 1.151397524594632 0.311146001609140
3.357127499294607 1.133713347538704 0.435073555956377
3.357746111964431 1.135228151205549 0.310100132696168
3.366713292432178 1.123873572626326 0.435804772016807
3.359798690621516 1.122868978930684 0.309925821210672
3.357419908859311 1.107760786462225 0.434098601209135
3.350454861178913 1.106759707675211 0.308705640812205
3.395715907428262 1.106612078464689 0.565667025585475
3.374477301956607 1.100342282777060 0.435804772016807
3.367555855319832 1.099385986197753 0.309925821210672
3.393917157041914 1.092935562666697 0.564728418795233
3.405503796641893 1.098635144685488 0.313063427949588
3.380770039236286 1.075691486223675 0.561912598424509
3.382076844218017 1.076757363797282 0.435804772016807
3.373250606131488 1.075244321285411 0.309751509725177
3.387901256706680 1.066251234473082 0.562538336284670
3.389229730672012 1.067319495676325 0.436292249390428
3.386112811622834 1.067637268512290 0.310623067152654
3.376695132073409 1.049137909311423 0.560035384844026
3.389143734115835 1.054303063730134 0.435804772016807
3.382209910635819 1.053441078439480 0.309925821210672
3.401109753859817 1.043719395633983 0.563476943074912
3.385394612913109 1.039543334773602 0.434829817269566
3.393665903903139 1.043379625466190 0.310623067152654
3.406802899728785 1.031819291484182 0.563789812004992
3.385203340994286 1.026567616815784 0.434342339895946
3.399193749393390 1.032106023389343 0.310797378638149
3.442301284697850 1.028811880999128 0.698360923078154
3.402635979839956 1.018250955761230 0.562538336284670
3.398958852134772 1.019089933028183 0.310448755667158
3.423395872508891 1.010807290061544 0.565354156655394
3.422745831615235 1.011914414531399 0.438242158884910
3.391032786193417 1.003825929446679 0.309402886754187
3.445279413596592 1.004859805746519 0.697597687096648
3.403730700402340 0.995965405235720 0.310274444181663
3.435559604574298 0.989025558810441 0.694926361161376
3.439515395941795 0.990814439719441 0.566918501305797
3.416030456013474 0.985340679512324 0.436535988077238
3.420585579920037 0.987948070143766 0.311494624580130
3.442768053149882 0.978100258990736 0.695689597142882
3.435182182822834 0.977241109952827 0.565667025585475
3.417539885065100 0.972867003814531 0.436292249390428
3.443174001790599 0.981463658006200 0.313237739435083
3.428369957717758 0.977890834990231 0.186839363787309
3.430965001380495 0.963108636848699 0.564415549865153
3.424737255227218 0.962005302972214 0.436779726764049
3.421645457200187 0.962425567596253 0.310971690123644
3.442109751653607 0.951347472384122 0.694163125179870
3.440349475437726 0.951507311799460 0.565354156655394
3.435892499451468 0.951565852176345 0.437754681511290
3.413630378132362 0.946683488204372 0.309925821210672
3.444902393944847 0.956003507363875 0.187362723349739
3.451091972323821 0.940875662715038 0.695307979152129
3.443649895995929 0.939492454126002 0.565354156655394
3.429618560328115 0.936950832096506 0.436535988077238
3.432288314966155 0.938967829907636 0.311320313094635
3.446292102376626 0.943445370579781 0.187258051437253
3.471255477703853 0.934017274899968 0.698742541068907
3.434623386561968 0.926089446419469 0.436779726764049
3.443077199874032 0.929658237504745 0.312017559036616
3.433976793214999 0.927844122236767 0.186420676137366
3.464197029366455 0.917868106776176 0.827369977876735
3.465238772793085 0.920086165702038 0.567857108096038
3.441671986648036 0.915114926393283 0.437267204137669
3.450151952330122 0.918659280784035 0.312366182007607
3.444914348671059 0.917908591560078 0.186839363787309
3.486234584899657 0.910695551549909 0.831868998963613
3.485288863295327 0.911748237605576 0.700269013031919
3.454446384317364 0.905612663067058 0.438485897571721
3.445629309168799 0.904586722259768 0.311668936065626
3.451802539256570 0.907495460574032 0.187048707612281
3.478069197813205 0.895605076112816 0.829169586311486
3.482747036620053 0.898106056729028 0.699124159059660
3.460101398508905 0.892910449620164 0.565979894515555
3.469118211658225 0.896529029503199 0.439948329692582
3.435264034161117 0.889059382552033 0.310448755667158
3.451238557345823 0.893836379002935 0.186839363787309
3.466833169291398 0.881107592992110 0.695307979152129
3.476598141537490 0.884235398219394 0.568169977026118
3.454913505974324 0.880004264223279 0.437754681511290
3.459582779974252 0.882479663699746 0.312366182007607
3.456118766402574 0.882881079215214 0.186944035699795
3.474784268734067 0.868938130162340 0.826920075768048
3.481314321062726 0.871862411691768 0.697597687096648
3.487327975545182 0.874015331748863 0.569421452746440
3.454113505894834 0.866972479713468 0.437267204137669
3.462642131899054 0.870398089804641 0.312366182007607
3.459179540632969 0.870811594538425 0.186944035699795
3.494675403624030 0.861608972033144 0.830969194746237
3.491810419778579 0.862195686920824 0.699124159059660
3.482386107932029 0.861158447957262 0.568169977026118
3.466604307434604 0.857897833839537 0.438485897571721
3.482914339504066 0.863224494921948 0.313934985377065
3.460259645042764 0.858250686587595 0.186839363787309
3.503342785852648 0.850784680005470 0.832318901072301
3.510059901073990 0.853713539142426 0.702177102985685
3.485519020913927 0.848389080583527 0.568169977026118
3.477292268704141 0.847672482324099 0.439460852318962
3.483970796871283 0.850589046524337 0.313760673891569
3.472787204115979 0.849143241642593 0.187362723349739
3.512123651236087 0.839297391552346 0.833668607398364
3.497890709303132 0.837186954025176 0.699124159059660
3.486538258765744 0.835756707988358 0.567857108096038
3.486166762053183 0.836311096477559 0.440192068379393
3.465755118991557 0.832693967878109 0.311843247551121
3.475876143639251 0.836409136713902 0.187362723349739
3.524349177096101 0.827926651209993 0.970053781044248
3.493279459642045 0.824488854197875 0.568482845956199
3.481337075386406 0.822311677305307 0.439217113632151
3.478335005004017 0.822884587114684 0.312714804978597
3.496265625524134 0.828415348217237 0.188304770562112
3.519546860259887 0.814492705567326 0.967983228683428
3.515998929275161 0.814318192410875 0.833218705289676
3.513212451995936 0.814965062431443 0.701032249013426
3.503832682897658 0.814078210592812 0.569734321676521
3.480319247923156 0.809255360689109 0.438729636258531
3.487007598679280 0.812093667840455 0.313237739435083
3.479685583844418 0.811669058026275 0.187258051437253
3.491577680754723 0.815085578917020 0.062584329484099
3.522620031165851 0.802906238689698 0.834118509507051
3.523691846026594 0.804444539931528 0.702558720976438
3.508578673962352 0.802282923349429 0.570047190606601
3.493705142956822 0.800807072514958 0.313586362406074
3.486390871959685 0.800411558905659 0.187467395262225
3.502197241791017 0.804683904304297 0.062723948735597
3.530967505019083 0.792500686959919 0.835468215833115
3.532086450349772 0.794046967036568 0.703703574948697
3.507365600740615 0.789775760512793 0.569421452746440
3.503175741624835 0.789474749773598 0.440923284439824
3.489163589414272 0.788236907293304 0.187467395262225
3.512647963678419 0.794831085882897 0.062863567987095
3.543226909598202 0.782271102632378 0.837717726376553
3.519501155820816 0.778321467918928 0.700650631022673
3.512165416803583 0.777342194733253 0.569734321676521
3.499075086297613 0.777007808045886 0.313586362406074
3.482145345296359 0.773886116781515 0.186944035699795
3.497833796052269 0.778654162428913 0.062549424671224
3.527951785890604 0.767283059680081 0.701795484994932
3.518584078258926 0.766532117205862 0.570360059536682
3.510541426079739 0.765421814089210 0.441167023126634
3.505659046071906 0.765639260781810 0.313934985377065
3.510190968690795 0.767270927837833 0.188304770562112
3.506390759413498 0.767722802287411 0.062654139109848
3.554319205396393 0.758736337292603 0.839067432702616
3.536368167375030 0.756195123383683 0.702940338967191
3.531028098401802 0.755697720118440 0.571924404187084
3.507368889465918 0.751914737892901 0.440435807066203
3.495273856127734 0.751236234861529 0.187362723349739
3.509049249967375 0.755478537190703 0.062654139109848
3.550964092529621 0.746363868685904 0.837717726376553
3.544489767243992 0.746295069651438 0.704085192939450
3.537120458211308 0.746032974435252 0.572550142047245
3.519425225499662 0.742942382896900 0.441654500500254
3.528203372398320 0.746081980940243 0.315503788746523
3.505432585211209 0.741906013065286 0.187781410999682
3.529011267479915 0.748183446360692 0.062968282425719
3.554763360602085 0.735509094759914 0.705611664902463
3.530159378070103 0.731060862442243 0.570985797396843
3.533659379012053 0.733072150026588 0.443116932621116
3.526884768294765 0.732950921041358 0.315155165775532
3.525599631235212 0.733325777914987 0.188723458212055
3.533559065593350 0.736268244840719 0.063003187238593
3.567547049048202 0.723880573889311 0.840417139028680
3.547689560928752 0.721140803090205 0.703703574948697
3.536196750087815 0.720732910787919 0.443116932621116
3.519661188456078 0.718642422905630 0.314283608348055
3.526312281839144 0.721923991867668 0.062828663174221
3.581519105940431 0.713708185511084 0.843116551680806
3.557886250845784 0.710290086496668 0.705230046911710
3.560359160037020 0.711429962266489 0.575053093487889
3.522148275666211 0.706352134381471 0.314283608348055
3.546298847021253 0.711839292266158 0.189560833511943
3.526850332906692 0.709216238665482 0.062793758361346
3.574426189726457 0.699331132816561 0.840867041137367
3.564197136174010 0.698621685176350 0.705993282893216
3.558822058263754 0.698858190709587 0.574427355627728
3.535298730546837 0.694879675610826 0.442385716560685
3.525247312111497 0.694821345263814 0.188304770562112
3.539113545815292 0.698837824702606 0.062968282425719
3.574931759275650 0.686482300535969 0.840417139028680
3.578181463612306 0.688401495023981 0.708282990837734
3.549601808318554 0.684188086145419 0.572550142047245
3.539651922554686 0.682910998961229 0.442629455247496
3.544599297157510 0.685148944830771 0.315852411717513
3.525690318594100 0.682132318718372 0.188200098649626
3.553310312779897 0.688762947527342 0.063177711302966
3.587117162182678 0.674551245253760 0.842666649572118
3.588515589533540 0.676111226199705 0.709809462800747
3.556202025001348 0.670665764795466 0.573175879907406
3.559803206634521 0.672631798750668 0.444823103428788
3.535458235521376 0.669310021956590 0.314806542804541
3.538095211226946 0.670448903805077 0.188723458212055
3.567716381281474 0.677352119060391 0.063387140180214
3.583700679069950 0.660965387778132 0.841316943246055
3.586992662563495 0.662867322281803 0.709046226819241
3.574060814648970 0.661122663602215 0.575678831348050
3.549526423027049 0.659147499612214 0.315852411717513
3.554159326917717 0.660649560444718 0.189456161599457
3.562195479485495 0.663429813190118 0.063247520928715
3.565429198457573 0.656952026694833 -0.063282425741590
3.585194061493536 0.650893805717526 0.708282990837734
3.576120152066907 0.649891176366248 0.575678831348050
3.564185945146359 0.649007669505634 0.444823103428788
3.547659610498828 0.647277874889828 0.315503788746523
3.575864885511573 0.653068888403853 0.190502880724316
3.564262123568740 0.652235590557301 0.063247520928715
3.577314073612267 0.647528558641956 -0.063456949805963
3.589377152876233 0.638719129668178 0.708664608828487
3.591980261043636 0.639829135526632 0.577868913858613
3.564475482396374 0.636213583508522 0.444579364741978
3.573432649875487 0.639099505793123 0.317595526572466
3.556496719422527 0.636711157504035 0.189351489686971
3.570453689081586 0.640496190289338 0.063317330554465
3.581521526682171 0.635386762774668 -0.063491854618837
3.603189305409763 0.628209191943685 0.710954316773006
3.566674566237596 0.623767366090495 0.444579364741978
3.579566716400111 0.627309844185164 0.317944149543457
3.554654259155679 0.624222994229711 0.189142145861999
3.578576176799954 0.629067715789581 0.063422044993088
3.562045881208581 0.619114313282196 -0.063107901677217
3.588570998170144 0.613405674188763 0.576617438138291
3.571916276946675 0.613125665595774 0.317072592115980
3.590381258093313 0.616940334442314 0.190921568374259
3.594545086046790 0.618947668710565 0.063666378683210
3.572070657950790 0.608018885975904 -0.063247520928715
3.607487190118592 0.603039080484916 0.710954316773006
3.592638606330564 0.601201517869992 0.576930307068371
3.584646605539914 0.601150508733327 0.446285535549650
3.590768119184357 0.605399231158820 0.063561664244587
3.586006281889418 0.597518335928661 -0.063456949805963
3.605695203013484 0.589809063790780 0.710191080791500
3.604462362525373 0.590253348208027 0.578494651718774
3.584764285932223 0.588312612270216 0.446041796862840
3.583973524145230 0.589467648176419 0.317769838057962
3.590043798890125 0.585318978376425 -0.063491854618837
3.619363645518268 0.579080242438658 0.712480788736018
3.586796040574067 0.575795865540524 0.446041796862840
3.601746054062918 0.579485541264771 0.319164329941924
3.574954568731386 0.575815171127080 0.189770177336914
3.594907064315108 0.580316391096955 0.063561664244587
3.621362962384155 0.566442777652217 0.712480788736018
3.608495236585751 0.565075274163298 0.578494651718774
3.598589512252393 0.564811097736641 0.447260490296891
3.603746893018122 0.566909570879657 0.319164329941924
3.574871497196115 0.563645965644126 0.189665505424428
3.636903171267072 0.555874784199371 0.715152114671290
3.614254444178135 0.553704241551877 0.579120389578935
3.614274173790334 0.554352896527852 0.448966661104563
3.601765313730562 0.553721202227263 0.318815706970934
3.586687014105078 0.552684773161885 0.190188864986858
3.612705008297574 0.557339499451799 0.063805997934709
3.634937898449785 0.542596539260814 0.714388878689784
3.625933352817925 0.542546367009836 0.580684734229337
3.619438607386759 0.543512277605120 0.320210198854896
3.604394478049230 0.542539788522584 0.191026240286745
3.612651108499404 0.544427420268371 0.063771093121834
3.625912977864465 0.530256182687873 0.449941615851804
3.621313768429170 0.530874767845140 0.320210198854896
3.620098590565165 0.531987501835410 0.191758943674146
3.612551109330314 0.531522512012585 0.063736188308959
3.654187057413827 0.519417154694552 0.717441822615808
3.643321996066177 0.519170281305465 0.582874816739900
3.627864632452404 0.520198218820340 0.192072959411604
3.628240260472422 0.520898363494967 0.063980521999081
3.655977899081902 0.506658497004042 0.717441822615808
3.647068624058839 0.506721397504057 0.583187685669981
3.627560316005993 0.504656291957008 0.449697877164994
3.624931694507036 0.505580496763527 0.320210198854896
3.630036430600858 0.508230268003891 0.063980521999081
3.644986223960841 0.492821472847645 0.582561947809820
3.645036596145439 0.494123961740440 0.451647786659477
3.628648653028861 0.493192374642780 0.320384510340391
3.621599097408586 0.492878005643319 0.191549599849174
3.656392597629791 0.482022454305549 0.584126292460222
3.656579298832951 0.482696366833253 0.452866480093528
3.634298433103841 0.481045898366500 0.320733133311382
3.633197218637261 0.481545375587117 0.192072959411604
3.665972199568942 0.469621869707552 0.585377768180544
3.648397377171151 0.468664971014758 0.451647786659477
3.645835768997134 0.469629607665271 0.321604690738859
3.642052499086773 0.455578305532641 0.450672831912235
3.657257550721791 0.458776936056087 0.322476248166335
3.642335854921754 0.457550840611626 0.192386975149062
3.661239750384397 0.443707070781922 0.584126292460222
3.667267653342741 0.445736568827199 0.453597696153959
3.664769948520767 0.446731185887084 0.322999182622821
3.647875897551941 0.445317969519841 0.192596318974033
3.688071374030897 0.436512012748400 0.324916608963270
3.653374871204212 0.433051990927470 0.192805662799005
3.683874559271686 0.420375805616476 0.587254981761027
3.682123371091809 0.421478065519425 0.455060128274821
3.674706072585197 0.422578435474316 0.193852381923864
3.691138435009824 0.408809681857473 0.588193588551268
3.687518151172105 0.409060220217307 0.455547605648441
3.673207410836096 0.408770734760264 0.323347805593812
3.676158759032115 0.409748743029075 0.193852381923864
3.692542959425869 0.395922713647040 0.588193588551268
3.673133637152802 0.394490067885678 0.453597696153959
3.676592831405085 0.396159805913307 0.323522117079307
3.697899041176913 0.382793001643534 0.588819326411429
3.680411695861211 0.382281294983283 0.454328912214390
3.693315983351960 0.369292982081464 0.587880719621188
3.693574726179214 0.370621090278483 0.455791344335252
3.681251294881203 0.370682513844208 0.323696428564802
3.706380051663301 0.357536701414047 0.589757933201670
3.716580320530658 0.359830120191521 0.458472469890165
3.690454988598747 0.358601061162137 0.324393674506784
3.701704808700633 0.344048412417500 0.588819326411429
3.715837210215412 0.346670242562446 0.458228731203355
3.699619096270456 0.346459861964919 0.325090920448765
3.704774620216043 0.333901358161084 0.325439543419756
3.710255859780182 0.320038183477291 0.457253776456113
3.727177051516446 0.308394554845826 0.459203685950596
3.727210466285198 0.282867295426134 0.458959947263785
3.732134974875680 0.270141802214614 0.459447424637406
3.737016009578465 0.257385372673654 0.459934902011027
3.747796008503174 0.244986611992881 0.461153595445078