# This PCD file was generated using the MATLAB® pcwrite function
# from Computer Vision Toolbox®.
# .PCD v.7 - Point Cloud Data file format
VERSION .7
FIELDS x y z
SIZE 8 8 8
TYPE F F F
COUNT 1 1 1
WIDTH 522
HEIGHT 1
VIEWPOINT 0 0 0 1 0 0 0
POINTS 522
DATA ascii
2.655096384880975 1.097605923845589 0.251357162084246
2.660847826035198 1.078294960689722 0.251182850598751
2.668106950669454 1.070949680233943 0.251531473569741
2.675532166373584 1.063101144608033 0.251880096540732
2.671993602102599 1.050372013092439 0.251182850598751
2.671930212888562 1.039593732043275 0.250834227627760
2.691307308314401 1.047673832337713 0.151355585454594
2.675362938757437 1.030727576119681 0.250834227627760
2.704084726100013 1.042335157294972 0.151878945017023
2.682667892177047 1.022802109817655 0.251182850598751
2.689045711040183 1.025771321284042 0.150832225892164
2.673020738552518 1.007385529223082 0.350739970320014
2.689950068601699 1.014838187216836 0.251531473569741
2.675792805016747 1.010030593079213 0.149890178679791
2.700700712635689 1.007065232519848 0.353908573248548
2.687876384392301 1.003352009774436 0.251008539113255
2.692399315359187 1.005575792295715 0.150622882067192
2.700474779921968 0.996257743757088 0.353421095874928
2.691362361042437 0.993963457505510 0.251008539113255
2.701513373728362 0.998248237888709 0.150936897804650
2.683423298913278 0.979338997522971 0.350739970320014
2.700429743342153 0.986613966593251 0.251531473569741
2.710609013775051 0.990869282798757 0.151250913542108
2.690559776956404 0.971314247095617 0.351227447693635
2.696362117138635 0.974472946525476 0.250834227627760
2.710123715652304 0.980516134531367 0.151041569717136
2.701243468030998 0.965058129925208 0.352202402440876
2.711003999358962 0.969078806096979 0.251880096540732
2.704127454369630 0.967685371872620 0.150518210154706
2.712082462741880 0.958268474728016 0.353177357188117
2.706689310661101 0.957425794053001 0.251182850598751
2.707321546491692 0.958712841425240 0.150518210154706
2.718993034132277 0.950579857315824 0.353664834561738
2.698730967738513 0.944024710567620 0.250136981685779
2.720076659950878 0.952557299173051 0.151041569717136
2.722294612020471 0.941083009175459 0.353664834561738
2.713143547650682 0.938979906817263 0.251182850598751
2.721333304189677 0.942878094129460 0.150936897804650
2.729208961586337 0.932288895282105 0.456788637917474
2.721643805437498 0.930765679799870 0.353177357188117
2.716404669792325 0.929503547866031 0.251182850598751
2.724607983649578 0.933373123843883 0.150936897804650
2.730896806876294 0.921171266660132 0.456475768987394
2.714073072577065 0.916023999793143 0.351714925067256
2.723728765668270 0.920342071664136 0.251531473569741
2.724387913175561 0.921624491327251 0.150727553979678
2.734095657104037 0.911633045765789 0.456475768987394
2.734042338149621 0.912675854280439 0.353908573248548
2.723145243631489 0.909566466868851 0.251182850598751
2.727588385107039 0.912108987950716 0.150727553979678
2.737103708239068 0.902561445371622 0.456475768987394
2.727785855204617 0.900016764744997 0.352689879814497
2.726146501953028 0.900531190717097 0.251182850598751
2.738183044886593 0.905567460952979 0.151146241629622
2.726177265600658 0.902124808542398 0.050123311287878
2.743993883159674 0.894225800131034 0.457101506847555
2.730755420057057 0.890966152278211 0.352689879814497
2.731167347227895 0.891628004554083 0.251357162084246
2.748921087940426 0.898485906672389 0.151564929279565
2.736755929627336 0.895567205442011 0.050262930539377
2.746944155364190 0.885121471747363 0.457101506847555
2.735738157552925 0.882037751029115 0.352933618501307
2.747381449508701 0.886850526841946 0.252577342482713
2.744283566539754 0.886908405677321 0.151146241629622
2.747476106443735 0.888469823626751 0.050402549790875
2.759428491059932 0.878523784195032 0.458665851497957
2.750460397567343 0.877254972900161 0.252577342482713
2.737849706644041 0.874285840687652 0.150622882067192
2.761835557059566 0.883007804822117 0.050611978668122
2.749136781721383 0.865217214180326 0.456475768987394
2.747358848717927 0.865184686159971 0.353664834561738
2.741953303687851 0.864534555815508 0.251531473569741
2.750256939688143 0.868208258045527 0.151146241629622
2.764901003455782 0.873361820040531 0.050611978668122
2.759772483486199 0.857460274100031 0.561741682388548
2.752140204732482 0.855615664783213 0.456475768987394
2.759689755193246 0.859019287698884 0.354883527995789
2.741149876955127 0.853773112503538 0.251182850598751
2.760897585476513 0.860981181398546 0.151564929279565
2.769690788408575 0.864784267779167 0.050646883480997
2.768823810626700 0.848099907375526 0.562886536360807
2.759182351711028 0.846200308700072 0.457101506847555
2.755524857640410 0.845604801728902 0.353908573248548
2.744407915289215 0.843241584638110 0.251182850598751
2.764183155165452 0.850373774826132 0.151564929279565
2.755939199800729 0.848364156638640 0.050332740165126
2.777258182563854 0.840619758333733 0.564031390333066
2.767791035073774 0.838281599740756 0.458040113637796
2.752614837879192 0.834734274279502 0.353177357188117
2.758773941641778 0.837127834904421 0.252228719511723
2.755668645584775 0.837236148659433 0.150936897804650
2.772129252391015 0.843294354088935 0.050577073855248
2.782056612059082 0.831482389069787 0.564413008323820
2.759315163347431 0.826259652963499 0.353664834561738
2.765351699462821 0.829119209970711 0.252577342482713
2.754604030172086 0.826944884155531 0.150727553979678
2.782716620365752 0.835913887778234 0.050716693106746
2.790447289055597 0.823920039443976 0.565557862296079
2.763960767223674 0.816623995224050 0.456475768987394
2.775364763979192 0.821046816817078 0.355371005369410
2.756766372099775 0.816068065460033 0.251531473569741
2.765133474024404 0.819594829455974 0.151146241629622
2.789307409922358 0.827819366826138 0.050786502732495
2.782138856519747 0.810392725372323 0.563268154351560
2.774379932293799 0.809183391288860 0.457727244707716
2.751948572261824 0.804204728832461 0.250834227627760
2.775645075569440 0.812181313919246 0.151564929279565
2.780808051207692 0.814218976651072 0.050577073855248
2.792357831554467 0.803333536361217 0.564794626314573
2.777187606971810 0.799494068229700 0.457727244707716
2.771491935107921 0.798902117648084 0.354152311935359
2.768139403040864 0.798459028834363 0.252054408026227
2.782300863606233 0.803595964648652 0.151774273104537
2.771966958667866 0.801659703610573 0.050367644978000
2.791367753958824 0.792509086937065 0.564031390333066
2.795024230547442 0.794601609113602 0.460230196148359
2.770445069060186 0.788136602445619 0.353664834561738
2.777267764067159 0.792173752042507 0.151355585454594
2.782439995691644 0.794174216803551 0.050507264229498
2.810755858066867 0.796953525183271 -0.050995931609742
2.801541977718470 0.785367972020999 0.565557862296079
2.793976962635301 0.783773228800800 0.459604458288198
2.776865642770730 0.780018808715752 0.354152311935359
2.785018513346297 0.782833398707340 0.253100276939199
2.772325822235375 0.780309930891605 0.150936897804650
2.792757121526062 0.787112795829880 0.050646883480997
2.788485872079320 0.780133341399101 -0.050542169042373
2.798830396514494 0.773028936019915 0.670354141944718
2.813727443158497 0.778200660918459 0.567465952249844
2.787042099684126 0.771867598028946 0.458040113637796
2.789136438689536 0.772971781449353 0.355371005369410
2.779919832913830 0.771462528264180 0.252403030997218
2.780671199817818 0.772716532537267 0.151250913542108
2.799340831143378 0.778430939861603 0.050716693106746
2.789130029488388 0.770349722441796 -0.050507264229498
2.807018823248040 0.765281168035261 0.671703848270781
2.793565268062057 0.762661025791345 0.562886536360807
2.806869355388368 0.766819554961153 0.460855934008520
2.796834906951652 0.766701691299664 0.151983616929509
2.798050089809747 0.768085013595066 0.050646883480997
2.791802059502641 0.760609148522989 -0.050507264229498
2.813700740322056 0.755508087693775 0.672603652488156
2.792681247666158 0.750909344797675 0.562123300379301
2.785012587922982 0.750411237296839 0.354152311935359
2.783445484204054 0.751031230720492 0.252228719511723
2.801554340562265 0.756966597198216 0.152088288841995
2.804839447112247 0.758379517763622 0.050716693106746
2.814015767802762 0.755066152102420 -0.050856312358244
2.818057578919352 0.747194428023449 0.566702716268338
2.806687040691512 0.744703906085312 0.459917327218279
2.791452092270221 0.741704682740435 0.354639789308979
2.791826307089529 0.742847543214067 0.252751653968209
2.794659875704506 0.744123814522662 0.151564929279565
2.809401785905872 0.749099379693711 0.050751597919620
2.818567470436180 0.745750292399428 -0.050891217171119
2.809350747160892 0.733875809523723 0.670354141944718
2.824318550256213 0.738839035051495 0.567465952249844
2.805319174990220 0.734391967805402 0.459291589358118
2.799656936261655 0.733954009311712 0.355371005369410
2.801982670878878 0.735609113068066 0.253448899910190
2.793120577372691 0.734324810291018 0.151355585454594
2.813804328058731 0.740287737665670 0.050786502732495
2.792002079444469 0.728823359063862 -0.050367644978000
2.819444048579994 0.726008672660090 0.672153750379469
2.830682498650250 0.729956287374194 0.568229188231350
2.809889653985775 0.726163679298436 0.356345960116651
2.794889155249555 0.723327931116169 0.252577342482713
2.803400350873885 0.726574870707602 0.151774273104537
2.816371271839009 0.730461217519538 0.050786502732495
2.804212191047999 0.721564603293614 -0.050542169042373
2.822086065726465 0.715670017175052 0.672153750379469
2.825727521777400 0.717643368285282 0.566702716268338
2.819949924275729 0.717223976639410 0.460855934008520
2.824074843667972 0.718797907485911 0.357808392237513
2.793660198581584 0.712095055392597 0.252228719511723
2.813910682638654 0.717779891630332 0.152192960754481
2.807404764567889 0.717164170522872 0.050577073855248
2.814591718369281 0.713246672072426 -0.050681788293871
2.835910669850093 0.708649335691955 0.674853163031595
2.816788216592962 0.704915667933334 0.564413008323820
2.828308334680034 0.708323207348111 0.461794540798762
2.801925942417241 0.703795151038701 0.252751653968209
2.820149286135814 0.709419157809068 0.152402304579452
2.817647804056628 0.709312814867444 0.050716693106746
2.820944520229120 0.704386462886606 -0.050751597919620
2.815644585053023 0.693152055587431 0.776974773397767
2.826770467251923 0.696937630870340 0.672153750379469
2.832330940933934 0.699357418539489 0.567084334259091
2.830397519442552 0.699928342062180 0.461794540798762
2.819145137174444 0.697667888219701 0.356589698803462
2.813792539688183 0.697385696896966 0.253623211395685
2.818487197892026 0.699593609187178 0.152192960754481
2.823743702438769 0.701421580846778 0.050786502732495
2.830910048193888 0.697434142446240 -0.050891217171119
2.836760807139063 0.688905648999024 0.673953358814220
2.842385463369698 0.691322376805552 0.568610806222103
2.827065710246085 0.688641617998748 0.460855934008520
2.821563277378901 0.687822984825378 0.356589698803462
2.811211541208968 0.687379082201183 0.151669601192051
2.837829247016208 0.694412398894689 0.050995931609742
2.819724220478136 0.684247187529941 -0.050646883480997
2.831689188789521 0.676170535124859 0.780080601938998
2.854429691722367 0.682127291785123 0.677552575683721
2.848718852773075 0.681813829369849 0.569374042203610
2.825728803660832 0.677354334683677 0.460230196148359
2.825995647644441 0.677939892161210 0.356833437490272
2.824522617937222 0.678629292994010 0.254146145852171
2.827304840859636 0.680341733550526 0.152402304579452
2.840355334540341 0.684006570514850 0.050995931609742
2.824158184772025 0.674372229351507 -0.050681788293871
2.853504271012333 0.682432636247712 -0.153763039441769
2.820983866405631 0.662694758172353 0.776457135307562
2.849170559296755 0.671415478839290 0.568992424212857
2.835766209670895 0.669301629026894 0.461481671868681
2.828344882555882 0.668071196212525 0.356833437490272
2.822996525800362 0.667848360556845 0.253797522881181
2.834942699944963 0.672242161369016 0.050856312358244
2.863645383143460 0.674298980150621 -0.154181727091713
2.838222815653427 0.656820855612582 0.780598240029203
2.847731314207744 0.659544972255028 0.674853163031595
2.834284623765910 0.657473175026347 0.565557862296079
2.841933483053180 0.660292980255675 0.462107409728842
2.828726144284209 0.657744773715648 0.356589698803462
2.850536540044442 0.663865107433294 0.256063572192620
2.851552077216427 0.664626322114066 0.153449023704311
2.847008683359401 0.664615235012094 0.051030836422617
2.836590160210495 0.656443026874460 -0.050821407545370
2.848470589833565 0.660240031627664 -0.153239679879340
2.838727426263187 0.645985180835967 0.780080601938998
2.842416163227676 0.647868248694600 0.673053554596844
2.863592000863647 0.654272286398726 0.465236099029647
2.838281124415523 0.651095955722225 0.152611648404424
2.823975405317298 0.648851962903131 0.050577073855248
2.854462447966674 0.650089883878792 -0.051100646048366
2.844916186760810 0.648960423718653 -0.152925664141882
2.861679586129371 0.643333063314877 0.570137278185116
2.831201179798512 0.638038741939746 0.356345960116651
2.853045764215900 0.644008193693583 0.255889260707124
2.832631970412256 0.639919856618908 0.152192960754481
2.849516199297152 0.644779687104338 0.050995931609742
2.860504991375916 0.641495735589546 -0.051170455674115
2.864590886311438 0.643462338807838 -0.153867711354255
2.863886411893283 0.632286793481058 0.677102673575034
2.867741682520665 0.634187862748756 0.570900514166622
2.844834700595983 0.629642908968450 0.461481671868681
2.848915403505255 0.631589339278373 0.358295869611134
2.839716301275440 0.630589994300719 0.254494768823162
2.838747829088185 0.630894841004415 0.152402304579452
2.865412953462461 0.637870708954043 0.051240265299864
2.841246587447451 0.626768346726620 -0.050786502732495
2.880471058571676 0.636475602433177 -0.154600414741656
2.864171687434676 0.621872633072492 0.676652771466346
2.871856347731503 0.624590940914128 0.571282132157375
2.858487668623955 0.622728505530379 0.463358885449164
2.860800333407522 0.623755345735682 0.359514563045185
2.834114142743307 0.618973216934101 0.253797522881181
2.852639908963837 0.623540909671436 0.153030336054368
2.857854975499693 0.625726161418653 0.051065741235492
2.859051015911848 0.620238323941290 -0.051065741235492
2.892433772709574 0.628537576549497 -0.155123774304085
2.879665586784960 0.614718823404355 0.679802086227160
2.860580113674698 0.611688780587235 0.568610806222103
2.860750882786142 0.612247441737095 0.463358885449164
2.853789307531350 0.612841437597846 0.255366326250638
2.862609761499027 0.615258279501119 0.153449023704311
2.852202148023621 0.614063056134393 0.050926121983993
2.869021459443191 0.611923096730187 -0.051205360486990
2.873125195917840 0.613846979118766 -0.153972383266741
2.872047219844043 0.603664869087524 0.677552575683721
2.872093334433480 0.604721479202656 0.570518896175869
2.872219126175958 0.605795081973106 0.464923230099566
2.851278273197298 0.601898133605215 0.357808392237513
2.863497654173001 0.605521784531059 0.256063572192620
2.852804668009122 0.603780813308426 0.152820992229396
2.865854493823767 0.607587998291804 0.051135550861241
2.870929711344433 0.602906795099519 -0.051205360486990
2.873084992026394 0.604406614784535 -0.153867711354255
2.874136905979139 0.593635875662024 0.677552575683721
2.891489504783956 0.598272405905306 0.573953458092647
2.866682848383503 0.593661478432550 0.463671754379244
2.866967868010329 0.594764258134883 0.359514563045185
2.852939468647906 0.593412262882954 0.152716320316910
2.873830863319134 0.598804312147465 0.051240265299864
2.865183038257204 0.591265124419910 -0.051065741235492
2.875177261014693 0.594373994339129 -0.153867711354255
2.891470145748917 0.586699779908146 0.681151792553223
2.891636339520561 0.587784504904869 0.573571840101894
2.866700087148331 0.583757786773813 0.463358885449164
2.869026516160357 0.584753049181617 0.359514563045185
2.865703064145048 0.585117624417895 0.255889260707124
2.858907113465072 0.584249824840003 0.152925664141882
2.885698883971699 0.590774466678375 0.051414789364237
2.867229483024970 0.581260167003067 -0.051065741235492
2.888978311148379 0.586719168906151 -0.154495742829170
2.887767005910348 0.575460548723185 0.679802086227160
2.889819947250823 0.576918517224837 0.572808604120388
2.860972254198098 0.572197957513267 0.462107409728842
2.882729054423806 0.577072619123209 0.360976995166047
2.856007087645037 0.572760299759130 0.254843391794152
2.866803706261245 0.575446009871704 0.153239679879340
2.879901689294014 0.579120986436683 0.051275170112739
2.877085806247289 0.572809981187292 -0.051205360486990
2.892967420611045 0.577021849711766 -0.154600414741656
2.888160397412755 0.565064257945457 0.572045368138881
2.880693144157249 0.564125340078966 0.464923230099566
2.877131772003240 0.564470811843968 0.360002040418806
2.869915168702582 0.564095391494729 0.255889260707124
2.882709980085336 0.567132855605778 0.153972383266741
2.872294370388050 0.566125228028706 0.051100646048366
2.891040155149201 0.564056150351644 -0.051414789364237
2.897121857472495 0.566292573780070 -0.154705086654142
2.897681794392503 0.567452222746384 -0.258329621504059
2.893821631440193 0.554643667388302 0.680251988335848
2.894283970583474 0.556303553290532 0.466800443680049
2.877135335687404 0.554048936894422 0.359758301731995
2.893386182033245 0.558225862651163 0.257806687047573
2.872905913172206 0.554794668173477 0.153344351791825
2.884069455116560 0.557994834199725 0.051275170112739
2.891234980660561 0.554671068009719 -0.154286399004198
2.893775192071872 0.556205762162668 -0.257806687047573
2.884249036971229 0.542378096824433 0.677552575683721
2.907469351304863 0.547795493485460 0.575098312064906
2.888443566158300 0.544732891929942 0.465548967959727
2.879051798900029 0.544002484907390 0.359758301731995
2.901189980643787 0.549234469844776 0.258329621504059
2.894448384115222 0.548481493684132 0.154391070916684
2.891893454430798 0.549043127344105 0.051379884551363
2.894907525348216 0.543859300846186 -0.051414789364237
2.897079111067493 0.545314303557174 -0.154495742829170
2.911362093222933 0.549055107420999 -0.259201178931535
2.911294367678014 0.537999958019892 0.575479930055659
2.885459393553445 0.535830169386750 0.256760818134601
2.886527188159693 0.536549643013114 0.153867711354255
2.909519486555482 0.541874240353960 0.051659123054359
2.894821720976033 0.533388518088689 -0.051379884551363
2.920569715651482 0.539186893144259 -0.155647133866515
2.905424303106550 0.537439611069704 -0.258503932989554
2.898220242519012 0.527741030984307 0.361708211226478
2.893008610550426 0.527835438307948 0.257283752591087
2.905788739400121 0.531215342990018 0.154809758566628
2.903339345688444 0.531291242639391 0.051519503802861
2.888612244258971 0.522866844932008 -0.051240265299864
2.934040393137939 0.532147577399804 -0.156275165341430
2.891416122047511 0.525459365182603 -0.257109441105592
2.899335341580156 0.515928214594651 0.572426986129634
2.905478348673087 0.517544520019918 0.467426181540210
2.900044745546173 0.517621139214170 0.361708211226478
2.894833474871690 0.517733737953156 0.257283752591087
2.905750221838859 0.520209558203960 0.154705086654142
2.907144486644709 0.521506545235585 0.051554408615735
2.908140349043192 0.515924270818134 -0.051554408615735
2.916215759187428 0.518406959204909 -0.155228446216571
2.905001784205482 0.517459630958962 -0.258155310018564
2.912723077803061 0.507827720379597 0.574716694074153
2.913105100989881 0.508418229058426 0.468364788330451
2.892698103055792 0.506937889434722 0.256935129620096
2.893689217054789 0.508152752911956 0.153972383266741
2.912886167026490 0.512047964586016 0.051624218241485
2.911893701563209 0.506112253888875 -0.051589313428610
2.921942847150696 0.508909708506221 -0.155437790041543
2.926089448112079 0.499640024093963 0.577006402018671
2.910967792872689 0.497580837174281 0.467739050470290
2.903587721409982 0.497362557907740 0.361708211226478
2.902304704412966 0.498185670011300 0.257632375562078
2.899382075264670 0.498725953470395 0.154181727091713
2.922538575990894 0.503234316172022 0.051763837492983
2.913642622765601 0.495944764609485 -0.051589313428610
2.921732649529058 0.498371294406303 -0.155333118129057
2.929752076569742 0.489746714317594 0.577388020009425
2.908705367610484 0.487272241787231 0.467113312610129
2.917052671903043 0.489194024037497 0.363170643347339
2.907099261008995 0.489089922293045 0.154495742829170
2.924277386463702 0.493029686880027 0.051763837492983
2.911411040741904 0.485113896496537 -0.051519503802861
2.935274386657060 0.490143239114063 -0.155961149603973
2.915943729465499 0.476981537348266 0.574335076083400
2.914370595984550 0.477246487599243 0.467739050470290
2.920701393620189 0.479330111964422 0.363414382034150
2.895882063118993 0.476295033331797 0.256760818134601
2.906734489968883 0.479122116006490 0.154391070916684
2.925980565539403 0.482819050176890 0.051763837492983
2.920981210751723 0.476235342494288 -0.051659123054359
2.934996304076352 0.479572156635218 -0.155856477691487
2.925345335343903 0.468040752994073 0.575861548046412
2.927639936075949 0.469456035462546 0.469616264050773
2.922356774041495 0.469132041268263 0.363414382034150
2.915230831305977 0.469031989161327 0.258329621504059
2.913829119675508 0.470371770048932 0.051519503802861
2.930524775319578 0.467295871513614 -0.051798742305857
2.934680210977163 0.469008991700173 -0.155751805779001
2.944418305784224 0.460557116484234 0.579296109963190
2.937066965313509 0.460457612497563 0.470867739771095
2.925937630670610 0.459236053309574 0.363658120720960
2.916850297898884 0.458853077030940 0.258329621504059
2.911981418245842 0.459128832941904 0.154495742829170
2.917428510860018 0.460509529731339 0.051554408615735
2.940041425720937 0.458295561448656 -0.051938361557356
2.934326159259468 0.458453880782703 -0.155647133866515
2.938656368713179 0.450202530273136 0.470867739771095
2.921636397814228 0.448116972274686 0.362926904660529
2.928280492901775 0.450182300553275 0.259201178931535
2.913566336169013 0.448961323713232 0.154495742829170
2.943600161387483 0.448331205095511 -0.051973266370230
2.949729271036995 0.450318303079055 -0.156379837253916
2.945620081168977 0.439700293834752 0.578914491972437
2.942163593396441 0.440234282713800 0.471180608701175
2.927109188823549 0.438504029212370 0.363414382034150
2.931804380942568 0.440253820945247 0.259375490417031
2.940790891953591 0.442653011019248 0.155856477691487
2.944300766587637 0.443706857569570 0.051973266370230
2.927345768950182 0.435405654550702 -0.051659123054359
2.937455237677180 0.437957413868111 -0.155647133866515
2.941308755113452 0.428566275502520 0.577769638000178
2.939773100411070 0.429390535092803 0.470554870841014
2.950228219259169 0.431443546260664 0.366095507589063
2.943853258862819 0.433135541004779 0.051938361557356
2.948637295975774 0.428057527571783 -0.052008171183105
2.943855502129119 0.420021147654008 0.365120552841822
2.946640358481088 0.421468045497120 0.260421359330003
2.959699829571166 0.423863132710468 0.156693852991374
2.945347249090543 0.422856936650579 0.051938361557356
2.961993183287358 0.419444518861741 -0.052217600060352
2.952482056708577 0.410215981133918 0.472119215491417
2.955986760136930 0.412280666386371 0.261118605271984
2.943358783225385 0.411043122076698 0.155751805779001
2.954726870952799 0.413682247606004 0.052077980808854
2.963439272414636 0.409102677765069 -0.052217600060352
2.946135481772860 0.398333145346781 0.470867739771095
2.944748939249715 0.399192428885828 0.364876814155012
2.947536691497328 0.400618180272944 0.260247047844507
2.946754675432451 0.401035710602678 0.155856477691487
2.964078233137977 0.404447215445461 0.052217600060352
2.964849252969584 0.398755851881374 -0.052217600060352
2.953247502427439 0.389851203346275 0.471806346561336
2.957864359573521 0.390985916629678 0.366339246275873
2.944108559202047 0.390736178709354 0.155647133866515
2.973332016304978 0.395670876362800 0.052357219311851
2.966155273278740 0.388921864960895 -0.052217600060352
2.946819256867529 0.378019021852741 0.470554870841014
2.963148874162507 0.381165193014849 0.366826723649494
2.944267254190934 0.379781148589263 0.259724113388021
2.959320169765775 0.382247929121802 0.156379837253916
2.966762530717761 0.384262161255934 0.052217600060352
2.979396510188748 0.380083992969827 -0.052427028937600
2.971578338780583 0.371183063081953 0.474309298001980
2.964461336465979 0.370819551014941 0.366826723649494
2.949528792257790 0.369997399240909 0.260072736359012
2.964117752322600 0.373404014867022 0.052147790434603
2.992612043885286 0.371158400284083 -0.052636457814847
2.968996776690936 0.359813875288608 0.473683560141819
2.961796498105395 0.359990361605202 0.366339246275873
2.962668852069136 0.361145880441906 0.261118605271984
2.957951543014943 0.361094788328045 0.156170493428944
2.967387992066930 0.363298046861943 0.052182695247478
2.995874734259901 0.360949171189112 -0.052671362627722
2.976059054667453 0.350659809200567 0.474622166932060
2.966977882443533 0.350114838170946 0.366826723649494
2.971825753108587 0.351738757053700 0.261815851213965
2.963160726155859 0.351237608276678 0.156379837253916
2.999102590757168 0.350721683798023 -0.052706267440596
2.989040557641303 0.341615112585103 0.476499380512543
2.976070791096701 0.340659025639428 0.367801678396735
2.984911751824082 0.342726640216954 0.262861720126937
2.972305451799473 0.341804803639593 0.156798524903860
3.011568941159045 0.347385148976449 0.052915696317844
2.992967707173003 0.332541827551818 0.369751587891217
2.980091480572532 0.332164310171889 0.262338785670451
2.985332144355059 0.333275962570279 0.157426556378775
2.996806177191492 0.335616059889304 0.052636457814847
2.989388502258602 0.320528920303614 0.476186511582463
2.984241736330122 0.321030784892043 0.368532894457166
2.987175451388336 0.322401207681980 0.262861720126937
2.996405755394117 0.323926493351773 0.157949915941204
2.997959438297150 0.325153209477851 0.052636457814847
2.981449388814607 0.309680662781522 0.368045417083545
2.992300358338976 0.311863561146067 0.263210343097928
2.983667637081403 0.311490255882725 0.157217212553803
2.995153420287568 0.313746293106147 0.052566648189098
2.994363253950635 0.300460734150899 0.369507849204407
2.993370735202270 0.301416583685920 0.263210343097928
2.998646988056327 0.302476552934083 0.157949915941204
3.004188466874051 0.304094894520481 0.052706267440596
2.993367333602853 0.290337773641316 0.369264110517597
3.001570241754301 0.293248752893218 0.158054587853690
3.021101849207482 0.295689284342594 0.052985505943593
2.998315518826267 0.280256690941532 0.369751587891217
2.991385697305044 0.280662298947908 0.262861720126937
3.000636397891388 0.282058560769856 0.157949915941204
3.014152177895781 0.284390507481962 0.052845886692094
2.997298420700746 0.269611065502032 0.369507849204407
2.996315797205692 0.270577084583841 0.263210343097928
3.003544341480801 0.272286863467664 0.158054587853690
3.013135025733875 0.273686530338411 0.052810981879220
3.008109870987214 0.260001605096243 0.370726542638459
3.009151603899404 0.261149917027176 0.264256212010900
3.000497062311458 0.261454122166441 0.157845244028719
3.009042619615984 0.248974584883493 0.370726542638459
3.020016287003574 0.250944001932268 0.265127769438376
3.011430705703347 0.250759825617329 0.158368603591148
3.021766717616809 0.239410257447226 0.372188974759320
3.022859956418804 0.240558703307877 0.265302080923871
3.008263878880274 0.240453911539040 0.158159259766176
3.050255617921132 0.231491504116661 0.375601316374664
3.011721315760775 0.229624412042440 0.264256212010900
3.024976120469061 0.231697088090507 0.158996635066063
3.029266053877874 0.219266290391703 0.372920190819751
3.038337328384630 0.220989056661595 0.266522261322339
3.031742304017616 0.221573280362306 0.159310650803521
3.022091378175271 0.208145245733967 0.371945236072510
3.035114948398913 0.210106744899518 0.266173638351348
3.044451922837951 0.211820932486242 0.159938682278436
3.051734672959578 0.200556180504817 0.267568130235311
3.035208197456730 0.200534169095492 0.159415322716007
3.041902954999598 0.189781323638368 0.159729338453465
3.043115616961094 0.178662474683572 0.266696572807834
3.047728765826803 0.167726662648728 0.267045195778825
3.064213666404778 0.157907380149549 0.268439687662787
3.054770066963157 0.147265520975869 0.267568130235311
3.071188716721498 0.137313415896923 0.268962622119273
3.067645807690799 0.126963451507236 0.268613999148282
3.066079343082056 0.116179154812801 0.268439687662787
3.082395898976979 0.106023759215731 0.269834179546750