# This PCD file was generated using the MATLAB® pcwrite function
# from Computer Vision Toolbox®.
# .PCD v.7 - Point Cloud Data file format
VERSION .7
FIELDS x y z
SIZE 8 8 8
TYPE F F F
COUNT 1 1 1
WIDTH 357
HEIGHT 1
VIEWPOINT 0 0 0 1 0 0 0
POINTS 357
DATA ascii
3.233347450213516 1.176842228918242 0.301035935450411
3.245036652573226 1.156143793566132 0.301384558421402
3.250931728957084 1.145471580459583 0.301558869906897
3.247581994432353 1.130927704437368 0.300861623964916
3.262516468371670 1.122100807060627 0.423617837676293
3.247742201075662 1.118287320676507 0.300513000993925
3.253257589307045 1.106232165043239 0.421911666868621
3.253512059885070 1.107585850530925 0.300687312479421
3.251454354189411 1.092971916601579 0.421180450808190
3.260901204408570 1.083493368898435 0.421911666868621
3.278179893751117 1.090505307019578 0.302256115848879
3.270321431099587 1.073962164510543 0.422642882929051
3.274395638882123 1.076566508883780 0.301558869906897
3.275752878644565 1.063724580570633 0.422886621615862
3.272263356040209 1.063854263648911 0.301035935450411
3.271885330898085 1.049857574537648 0.421911666868621
3.277853870858307 1.053034846735864 0.301210246935907
3.300925008825859 1.046481033882275 0.548459234431049
3.269672279763764 1.037201142884754 0.421180450808190
3.287024587213689 1.043968605993257 0.301733181392393
3.295312430990089 1.031425208967672 0.546894889780647
3.280849887965083 1.028156032030077 0.422155405555431
3.288747681806315 1.031891919434428 0.301558869906897
3.295118223910213 1.018749186068324 0.546269151920486
3.290107781385528 1.018458488169606 0.422886621615862
3.282814217091127 1.017456611447522 0.300687312479421
3.306211301614169 1.009548409630047 0.547520627640808
3.299337880118058 1.008708818450866 0.423617837676293
3.273009907410289 1.001908969316724 0.299467132080953
3.309715140628315 0.998001427956650 0.547520627640808
3.295410951036022 0.994315672863141 0.422642882929051
3.291918124616223 0.994515632882864 0.300861623964916
3.320924141186195 0.988117415623939 0.548772103361130
3.289349395083533 0.979972555519836 0.421424189495000
3.304915838335038 0.985866313842319 0.301733181392393
3.289683698203948 0.982573149790822 0.179931017563241
3.322789164119576 0.976059810590332 0.673174135688450
3.314536491559623 0.974892565838107 0.547207758710728
3.294485342013344 0.969619765476178 0.421667928181810
3.310078047807469 0.975464598623285 0.301907492877888
3.292923940389732 0.971658763006241 0.179931017563241
3.331832767023531 0.966095395274857 0.674318989660709
3.307381233509466 0.960883073785634 0.422886621615862
3.298158210091842 0.959452113154899 0.300513000993925
3.313553692957238 0.965185401012741 0.180873064775614
3.323859864774384 0.951218294534979 0.672029281716191
3.309868003763420 0.948464229273360 0.545330545130245
3.314531578060643 0.950426635960749 0.423374098989482
3.299572213665638 0.947383701775580 0.300338689508430
3.313063623764930 0.952509341065931 0.180663720950642
3.321491911234788 0.938009364672107 0.670884427743932
3.332166965231863 0.942280098476450 0.548459234431049
3.312098718282783 0.937229467024469 0.422642882929051
3.310526791586728 0.938032903342937 0.301035935450411
3.324053991495755 0.943119410741054 0.181082408600586
3.336093195051185 0.929571286654921 0.673174135688450
3.329727731207625 0.929050266850368 0.547520627640808
3.301966315022297 0.921925560360767 0.420936712121379
3.329131430533733 0.930762996070841 0.302430427334374
3.321718158863511 0.929315479919543 0.180768392863128
3.348782865924223 0.920522300389460 0.675082225642216
3.336919774671071 0.917887781483797 0.548146365500969
3.322388684374723 0.915138310928423 0.423130360302672
3.323016567897495 0.917183465513317 0.180663720950642
3.353711767542009 0.909926357566825 0.675463843632969
3.332161848092741 0.905328336929197 0.546894889780647
3.325405124753192 0.904115841281048 0.423130360302672
3.325777687240470 0.905463982184771 0.301558869906897
3.329893830586049 0.907208912799935 0.180873064775614
3.371897930701989 0.900974758459729 0.805774676659724
3.345488359203904 0.895169381442017 0.673174135688450
3.335457660837962 0.893109272311720 0.546894889780647
3.330458180710711 0.893016617338077 0.423374098989482
3.315448473848616 0.890232603783552 0.300338689508430
3.365754913743362 0.886129317893392 0.803525166116286
3.350014443736901 0.884486520715123 0.548772103361130
3.331789646523692 0.880296796261160 0.423130360302672
3.330245735590002 0.881132616879971 0.301384558421402
3.349815476467755 0.886936084837589 0.181605768163015
3.359396368748009 0.871927383116850 0.801275655572847
3.349908229694978 0.870712972656235 0.672792517697697
3.353233747494564 0.872202163054051 0.548772103361130
3.327158189274122 0.866659793175198 0.422155405555431
3.344868441796065 0.872519881549478 0.302430427334374
3.335498534515020 0.870697505555413 0.180663720950642
3.358493603541594 0.859815800934832 0.800375851355472
3.369892907931390 0.863987688494346 0.676227079614475
3.331936483657006 0.856115781783519 0.422399144242241
3.349672965887028 0.861919598135092 0.302604738819869
3.336433367518718 0.859133757873675 0.180559049038156
3.374701172011932 0.851424281447908 0.803525166116286
3.376695128860328 0.853181176140325 0.676990315595981
3.343772077954814 0.845483473729572 0.546269151920486
3.348798706472496 0.849242288136956 0.302256115848879
3.337476086291343 0.846990903852933 0.180454377125670
3.375761454662763 0.839169066131655 0.803075264007598
3.368222096981820 0.838543377195327 0.674700607651462
3.361891013408502 0.838213572149579 0.548772103361130
3.357092481148882 0.837639537538536 0.424836531110344
3.345943850414063 0.836098580983810 0.301733181392393
3.350100273959184 0.837758445640420 0.180977736688100
3.390027009460621 0.830161457537869 0.805774676659724
3.365408398342801 0.825378070371017 0.673555753679203
3.370551511042375 0.827886856131223 0.549710710151371
3.346501976646561 0.822599063025716 0.423130360302672
3.354645880079764 0.825842757246084 0.302256115848879
3.362700555088376 0.828448144948239 0.181501096250529
3.387868938358976 0.835903201686699 0.060908898466119
3.381395250085885 0.816171723986896 0.803075264007598
3.371943520943776 0.815136057200423 0.674318989660709
3.349211413237382 0.811497139631797 0.423130360302672
3.368983211859470 0.817532888787095 0.303301984761850
3.363488451522020 0.816821139366125 0.181396424338043
3.371191765524382 0.819938159002078 0.060559850337374
3.378588105483245 0.804270105194202 0.675082225642216
3.370484270362015 0.802962615452821 0.548772103361130
3.359747219159881 0.801644126214283 0.424105315049913
3.369878583673555 0.805304877044947 0.303127673276355
3.356606793947795 0.802752617723653 0.180873064775614
3.368199281944227 0.806768104013698 0.060455135898750
3.392841716250353 0.793285292675373 0.804424970333661
3.389159367081316 0.793672133093970 0.676608697605228
3.381097691621474 0.792406752978779 0.550023579081452
3.366527954673788 0.790231922299971 0.424592792423534
3.365049499583554 0.791124327760700 0.302430427334374
3.365358994952334 0.791816946616175 0.181187080513072
3.378919139291550 0.796252300327938 0.060594755150248
3.389892829454075 0.780126095676187 0.803075264007598
3.385767934002508 0.781043719051914 0.550336448011532
3.380870688106922 0.781157049470750 0.426055224544396
3.360026179216168 0.777576467126436 0.301733181392393
3.371993959607496 0.780966115531224 0.181396424338043
3.373886108202421 0.782645325433039 0.060455135898750
3.403999007092634 0.770870890724433 0.805774676659724
3.386959135651076 0.768255037114417 0.675082225642216
3.366155675438412 0.765389660758985 0.423861576363103
3.372433186405789 0.768055190251752 0.302604738819869
3.376512435210982 0.770224075789284 0.181501096250529
3.378547032006645 0.771308568274589 0.060490040711625
3.397284700559679 0.758138070319709 0.676608697605228
3.393065973126870 0.757818336912181 0.550649316941613
3.376555713146594 0.755368412002534 0.424836531110344
3.382870366812486 0.758021099562195 0.303301984761850
3.373466206307911 0.756532217921788 0.181187080513072
3.385120974830698 0.760387066097513 0.060559850337374
3.409297704382263 0.747087902022078 0.805774676659724
3.403745605182495 0.747116536284551 0.677371933586734
3.389902472113062 0.744698170204970 0.549710710151371
3.397169867889870 0.748781191446909 0.304347853674822
3.375956409086823 0.745341241177994 0.181187080513072
3.401422771873099 0.751586307876797 0.060804184027496
3.411884757216444 0.735182680650197 0.805774676659724
3.406332791794192 0.735230695181150 0.677371933586734
3.392481301388885 0.732860665387121 0.549710710151371
3.397268352553715 0.735136092742583 0.426786440604827
3.388079871255296 0.734385928537725 0.303301984761850
3.378537568063436 0.733552413286978 0.181187080513072
3.405979665507227 0.740133179515925 0.060839088840370
3.419896451350122 0.725673819586082 0.807124382985788
3.402369072740907 0.724437273057968 0.550962185871693
3.401502578975347 0.724873389771078 0.427030179291637
3.384524823391723 0.722490530416426 0.302779050305365
3.394623786883213 0.725265839366700 0.181919783900473
3.392644732169979 0.726081418166316 0.060559850337374
3.411134074186104 0.712623036054466 0.677371933586734
3.408868537586351 0.712770689525795 0.551587923731854
3.396240418975578 0.711367670164321 0.426055224544396
3.390926023717347 0.711490207501498 0.303127673276355
3.400919292918450 0.714826513140802 0.182129127725445
3.395158560147165 0.714234454494144 0.060559850337374
3.432638230463535 0.702746579404293 0.808923991420539
3.413723056254396 0.700115818123058 0.677371933586734
3.415205725110337 0.701662260011694 0.552213661592015
3.387158452910721 0.696516026734083 0.424592792423534
3.403268065370487 0.701067003189352 0.303999230703832
3.393736200147734 0.700338453018782 0.181605768163015
3.399711915061802 0.702190266405834 0.060594755150248
3.429338875413046 0.689607607001933 0.807574285094475
3.407952493648669 0.687782764239954 0.550649316941613
3.401243861934928 0.687046677663461 0.426055224544396
3.413505737968660 0.690763804765899 0.304696476645813
3.396160161757600 0.688487836247321 0.181605768163015
3.427619176395005 0.695488217077554 0.061048517717618
3.422166039461140 0.675745222589977 0.805324774551037
3.435860936158810 0.679695625304540 0.680806495503512
3.402581785339943 0.674346503019207 0.549397841221291
3.413357139949638 0.677101199356621 0.427273917978447
3.406125287360883 0.676902463625826 0.303824919218336
3.398542742227657 0.676628830468850 0.181605768163015
3.430026001095231 0.683519356196402 0.061048517717618
3.432156504335719 0.665278858927467 0.807124382985788
3.430503587389000 0.666201010604170 0.679280023540500
3.418488087656114 0.665105974222476 0.551587923731854
3.413751380638683 0.664802780651250 0.427030179291637
3.410422884331553 0.665390274770476 0.303999230703832
3.408724567080290 0.666294171720935 0.182024455812959
3.416691130206574 0.668470504563563 0.060769279214621
3.434457851054211 0.653294343861864 0.807124382985788
3.425093987440296 0.652752097296087 0.677753551577487
3.426609882256942 0.654280633893655 0.552526530522095
3.408251974062206 0.651391915009313 0.426055224544396
3.410767914785196 0.653106920751737 0.303824919218336
3.422913090233498 0.656051861971082 0.182652487287874
3.419003712067774 0.656539954283454 0.060769279214621
3.432045094932691 0.652214737266729 -0.060978708091869
3.432886004001029 0.640586927843166 0.806224578768412
3.438930541339422 0.642957150222036 0.680043259522006
3.432868259919287 0.642443832581720 0.553152268382256
3.396847363248598 0.636930036490503 0.424349053736724
3.418901304684232 0.642300749487333 0.304347853674822
3.415368009147692 0.642254110866174 0.182129127725445
3.425204875268447 0.645341899853355 0.060839088840370
3.434300840035164 0.640230690683617 -0.060978708091869
3.445016055106396 0.631657261289218 0.680806495503512
3.436922667246941 0.631413431235045 0.553465137312337
3.422478228634092 0.629377290296526 0.427273917978447
3.428960146780341 0.631806773461571 0.305045099616804
3.413660823459901 0.629603823527682 0.181919783900473
3.435302274740860 0.634835315904622 0.060978708091869
3.428646359782550 0.626800402695266 -0.060839088840370
3.452996823125713 0.620670038290807 0.681951349475771
3.435325513909681 0.618112620720969 0.552839399452176
3.432468699655866 0.618835623483282 0.428248872725688
3.445367963769595 0.624266084528791 0.061118327343367
3.426876736688194 0.614122891813205 -0.060769279214621
3.447302340908357 0.607852413361594 0.680424877512759
3.445031401807743 0.608691993219191 0.554090875172498
3.440366220259714 0.608486938167899 0.428980088786119
3.435143068202733 0.608799812799810 0.305219411102299
3.435566254098177 0.609493284970293 0.182861831112846
3.429699702052947 0.609687464970928 0.060804184027496
3.432833393595113 0.603448006946197 -0.060839088840370
3.453272352369485 0.596483708406733 0.681188113494265
3.449185722951330 0.596397801063816 0.554403744102578
3.434645482353773 0.595118488860146 0.428005134038878
3.425469130708886 0.594760196039129 0.304173542189327
3.449479398766310 0.599549287226947 0.183489862587761
3.434918906238791 0.591461505790852 -0.060839088840370
3.461242833907189 0.584804040884178 0.682332967466524
3.443455901947331 0.583035178464955 0.553152268382256
3.440717985738054 0.583189355684383 0.428492611412499
3.435483050000339 0.583535787852439 0.304870788131308
3.445802383242551 0.587145020144318 0.061013612904743
3.467136989962485 0.573359110565767 0.683096203448030
3.442732734456401 0.571175455588953 0.428492611412499
3.447326081166048 0.573174064525384 0.305742345558785
3.441860401227648 0.572882648701383 0.182861831112846
3.445858465519066 0.574784335877414 0.060978708091869
3.448928692389418 0.568492932104991 -0.061013612904743
3.472993372442783 0.561880149205879 0.683859439429537
3.470841237389998 0.562775299113419 0.556906695543222
3.443406218852117 0.560177403200926 0.305219411102299
3.449753028198747 0.561827957264719 0.183175846850303
3.475473960591255 0.567262294714453 0.061467375472113
3.435098534513045 0.553903776799148 -0.060734374401747
3.467176993432936 0.548526587976986 0.682332967466524
3.456439082047919 0.548683029242585 0.429711304846550
3.445340624488325 0.548154259617462 0.305219411102299
3.455637948855959 0.550410972154059 0.183385190675275
3.445837827113832 0.550083425781098 0.060908898466119
3.450838147835744 0.544089767043104 -0.060978708091869
3.472857196803076 0.537626698972410 0.683096203448030
3.468829324711713 0.537623102469040 0.555968088752981
3.456278010593186 0.536913329231855 0.429467566159740
3.467311312352813 0.540486732843348 0.183908550237705
3.461473109729053 0.540814379264759 0.061153232156241
3.458552387593411 0.533558054726831 -0.061083422530492
3.478595066931990 0.526088041509731 0.683859439429537
3.478497305114725 0.526694271164763 0.557219564473302
3.444392812128536 0.522760312575211 0.427761395352068
3.456870856314022 0.525888659042592 0.305916657044280
3.471246984257733 0.529935430640281 0.061292851407740
3.482144828717817 0.524760091457363 -0.061467375472113
3.488179037018015 0.515089466182992 0.685385911392549
3.468589808401848 0.512815380381347 0.555342350892820
3.472480816605933 0.515868143414053 0.307136837442747
3.453220356314851 0.513622847528629 0.182966503025332
3.463186488508464 0.516340871784490 0.061118327343367
3.481976972848495 0.512310854951889 -0.061432470659238
3.478179263028716 0.501832966646435 0.556593826613141
3.477428130439873 0.502963775361192 0.431417475654222
3.470316835071323 0.503171994134993 0.306788214471757
3.470804517699477 0.503861225169696 0.183803878325219
3.501324807303580 0.492702292945672 0.687294001346314
3.481694659319743 0.491179429255249 0.556906695543222
3.488904799186393 0.492817661423345 0.432636169088274
3.489720705845184 0.494175418999634 0.308357017841215
3.474347745941148 0.493235628704100 0.183908550237705
3.466620853791352 0.492755929565208 0.061118327343367
3.495243154025267 0.479410252167208 0.685767529383302
3.492570335602842 0.480906889440860 0.432879907775084
3.485503425651268 0.481173614072880 0.307834083384729
3.489981340674928 0.482412530103209 0.184641253625106
3.474262068575958 0.481475667099872 0.061223041781991
3.493084787090365 0.466077019621184 0.685004293401796
3.494991509361701 0.466952296016061 0.558471040193624
3.501066200047062 0.470251980246178 0.309054263783196
3.483726452376185 0.469161007757426 0.184222565975162
3.487893976815209 0.470342064932417 0.061432470659238
3.502476823335666 0.455513939257512 0.559409646983866
3.490016909582120 0.455132375337312 0.432148691714653
3.477421671981219 0.455959043717694 0.183803878325219
3.493479884983796 0.458684818511964 0.061502280284987
3.496051894832213 0.443513928182455 0.558158171263544
3.507261114300736 0.445557942968395 0.434098601209135
3.492327475724416 0.444899574049921 0.308008394870224
3.510691324888140 0.447861696919113 0.185478628924993
3.496965261378723 0.447351244058488 0.061537185097862
3.513338519297734 0.432628656363498 0.560661122704187
3.508795034329996 0.433312602504741 0.434098601209135
3.489904622453692 0.432216601869096 0.307659771899233
3.494318914696603 0.434001811520847 0.184536581712620
3.510411932183486 0.436622745681457 0.061746613975109
3.512257164415466 0.421298401119616 0.434342339895946
3.499304581546943 0.420983841866467 0.308357017841215
3.497795452388162 0.422040970419269 0.184641253625106
3.522088414923643 0.409388496775916 0.561599729494429
3.509762818674144 0.408576694046856 0.433854862522325
3.510647492787811 0.409921784758937 0.309228575268691
3.491312539306267 0.408899497515401 0.184222565975162
3.511649159832773 0.396377198416794 0.559722515913946
3.513070937146402 0.397158652185207 0.434098601209135
3.519906339093804 0.399175837638178 0.309925821210672
3.492649302482699 0.397319639651302 0.184222565975162
3.524793419578486 0.385405102623188 0.561599729494429
3.515336863904550 0.386233850072603 0.309402886754187
3.509896814468695 0.386876168712652 0.185059941275049
3.524217877561583 0.372275988526186 0.561286860564348
3.540503938310395 0.375870937512156 0.311494624580130
3.519300679972428 0.374241101641329 0.185478628924993
3.533419443183413 0.360157824770615 0.562538336284670
3.517100112057992 0.359734910996877 0.434098601209135
3.536479875996940 0.363588274341107 0.186316004224880
3.550259985349963 0.350608584590570 0.565041287725314
3.524200043165549 0.348656113907759 0.434829817269566
3.525136597768378 0.349991360494614 0.309925821210672
3.537666133397240 0.351858885327480 0.186316004224880
3.531856060809394 0.335724585718364 0.561912598424509
3.531323965335865 0.336917850653673 0.435561033329997
3.542785551060983 0.324912717227990 0.563476943074912
3.544339102257809 0.325679011991297 0.437023465450859
3.541381845408534 0.326653931085327 0.311146001609140
3.563630313107658 0.313657534359254 0.566605632375716
3.557318660994165 0.314353402675078 0.438485897571721
3.530592940382224 0.313233773761733 0.310100132696168
3.554861661673933 0.300384602678910 0.565041287725314
3.556468916132653 0.301145577351093 0.438242158884910
3.543628642024708 0.301304187001726 0.311146001609140
3.546093957298118 0.286557813777126 0.563476943074912
3.548630407412750 0.289256513225382 0.311494624580130
3.556457235746136 0.276776650411338 0.437998420198100
3.555529092308265 0.277953083455458 0.312017559036616
3.557401699398062 0.264360611710127 0.437998420198100
3.564243222603933 0.252361955116819 0.438729636258531
3.575823497256017 0.228104764685999 0.439948329692582
3.576597946335260 0.215621421642426 0.439948329692582
3.593184012664313 0.204035774649826 0.441898239187065