# This PCD file was generated using the MATLABÂ® pcwrite function
# from Computer Vision ToolboxÂ®.
# .PCD v.7 - Point Cloud Data file format
VERSION .7
FIELDS x y z intensity
SIZE 8 8 8 8
TYPE F F F F
COUNT 1 1 1 1
WIDTH 648
HEIGHT 1
VIEWPOINT 0 0 0 1 0 0 0
POINTS 648
DATA ascii
nan nan nan nan
nan nan nan nan
nan nan nan nan
nan nan nan nan
nan nan nan nan
nan nan nan nan
nan nan nan nan
nan nan nan nan
nan nan nan nan
nan nan nan nan
0.993295100678361 2.963488562750393 -0.054556222522948 0.000000000000000
0.995928114770715 2.937277708345804 -0.054137364768453 0.000000000000000
0.992695072306173 2.896125815291880 -0.053439268510962 0.000000000000000
1.002143394461243 2.890753637181090 -0.053404363698088 1.000000000000000
1.011062711349780 2.885527316553481 -0.053369458885213 5.000000000000000
1.025135967748950 2.893289745326859 -0.053578887762460 5.000000000000000
1.029833856939922 2.874633433063956 -0.053299649259464 7.000000000000000
1.035776024623216 2.859740102756804 -0.053090220382216 9.000000000000000
1.051939952230023 2.873007189486358 -0.053404363698088 15.000000000000000
1.061268117116025 2.867442359394746 -0.053369458885213 16.000000000000000
1.071270893237373 2.863720372899683 -0.053369458885213 26.000000000000000
1.073481762906564 2.839388215948449 -0.052985505943593 28.000000000000000
1.081464876507910 2.832076561458558 -0.052915696317844 31.000000000000000
1.095663383657422 2.839478027875084 -0.053125125195091 43.000000000000000
1.104347341161366 2.833965839344150 -0.053090220382216 41.000000000000000
1.114232999967248 2.830093682245123 -0.053090220382216 46.000000000000000
1.120162042446917 2.814842912233463 -0.052880791504969 50.000000000000000
1.127743267583265 2.805349498388767 -0.052776077066345 53.000000000000000
1.138054327552360 2.805498825485242 -0.052845886692094 54.000000000000000
1.147840412581532 2.801509182477257 -0.052845886692094 62.000000000000000
1.159141722252886 2.801180893269089 -0.052915696317844 67.000000000000000
1.161202101094877 2.778667023576414 -0.052566648189098 67.000000000000000
1.169339412010231 2.770912019797890 -0.052496838563349 67.000000000000000
1.176652838106763 2.761294472508320 -0.052392124124725 72.000000000000000
1.193703238532948 2.775747637496118 -0.052741172253471 78.000000000000000
1.203385133503452 2.771563924792681 -0.052741172253471 84.000000000000000
1.206629851426620 2.752694706492774 -0.052461933750474 90.000000000000000
1.212994388322299 2.741151398464536 -0.052322314498976 110.000000000000000
1.225817724975138 2.744203828188413 -0.052461933750474 107.000000000000000
1.235389315850599 2.739908207183108 -0.052461933750474 110.000000000000000
1.247430775761177 2.741039439187629 -0.052566648189098 112.000000000000000
1.251983256158957 2.725765332504533 -0.052357219311851 112.000000000000000
1.260174659013932 2.719784220151406 -0.052322314498976 107.000000000000000
1.268813795032214 2.713557366322715 -0.052287409686101 112.000000000000000
1.281691440630053 2.716345791251997 -0.052427028937600 120.000000000000000
1.296323233154961 2.722688281550309 -0.052636457814847 120.000000000000000
1.300623723741746 2.707331774252452 -0.052427028937600 117.000000000000000
1.308321722422979 2.699176354412972 -0.052357219311851 121.000000000000000
1.319492616288050 2.698185805721706 -0.052427028937600 121.000000000000000
1.328903003588768 2.693563478682010 -0.052427028937600 125.000000000000000
1.340079218863613 2.692488768613667 -0.052496838563349 128.000000000000000
1.344086072055082 2.677072030726080 -0.052287409686101 125.000000000000000
1.349808663144893 2.665228166752668 -0.052147790434603 126.000000000000000
1.360923238214638 2.664061797693762 -0.052217600060352 131.000000000000000
1.369285905538416 2.659773191672135 -0.052217600060352 130.000000000000000
1.382247898832668 2.662076157392685 -0.052357219311851 136.000000000000000
1.391531857611686 2.657234993529496 -0.052357219311851 137.000000000000000
1.397063397384789 2.645288488224226 -0.052217600060352 139.000000000000000
1.404868799443591 2.636620614404491 -0.052147790434603 142.000000000000000
1.417849744607640 2.638746696540683 -0.052287409686101 141.000000000000000
1.429909966128310 2.639055996771694 -0.052392124124725 146.000000000000000
1.437195739831447 2.630538876507209 -0.052322314498976 146.000000000000000
1.444439499305072 2.622003090879526 -0.052252504873227 146.000000000000000
1.452612200624930 2.615196955649715 -0.052217600060352 150.000000000000000
1.465640466345554 2.617089365114672 -0.052357219311851 151.000000000000000
1.475750061780954 2.613698685863237 -0.052392124124725 154.000000000000000
1.482431391004483 2.605314481280520 -0.052322314498976 154.000000000000000
1.485546557758541 2.589716523460420 -0.052112885621729 154.000000000000000
1.501036516684972 2.594639811415781 -0.052322314498976 154.000000000000000
1.509076960486900 2.587657000863124 -0.052287409686101 154.000000000000000
1.522715229170273 2.591258782206070 -0.052461933750474 155.000000000000000
1.524617229255741 2.573884151724876 -0.052217600060352 157.000000000000000
1.531671258548701 2.567364431095155 -0.052182695247478 154.000000000000000
1.542684736420036 2.565429687157907 -0.052252504873227 155.000000000000000
1.558297894431913 2.570017785486363 -0.052461933750474 154.000000000000000
1.561002912269459 2.554324878244884 -0.052252504873227 153.000000000000000
1.566319555894693 2.544025875806817 -0.052147790434603 151.000000000000000
1.578353353636518 2.543640376861248 -0.052252504873227 148.000000000000000
1.591907919790110 2.544619468651301 -0.052392124124725 146.000000000000000
1.600780600891750 2.539047170325583 -0.052392124124725 145.000000000000000
1.615624061106039 2.543852977236895 -0.052601553001973 75.000000000000000
1.604012578754967 2.506196730864235 -0.051938361557356 132.000000000000000
1.617086418054072 2.507304409213194 -0.052077980808854 131.000000000000000
1.625828691894648 2.501644448862990 -0.052077980808854 130.000000000000000
1.641124417545233 2.505991355317320 -0.052287409686101 130.000000000000000
1.654267467429922 2.506923722979973 -0.052427028937600 128.000000000000000
1.655930199071689 2.491431816856791 -0.052217600060352 126.000000000000000
1.666842254145974 2.488959406374858 -0.052287409686101 126.000000000000000
1.679994208042702 2.489756387195292 -0.052427028937600 124.000000000000000
1.688674844599602 2.483876944587490 -0.052427028937600 121.000000000000000
1.698728775895985 2.481859913025670 -0.052496838563349 121.000000000000000
1.702840825608462 2.469330242034674 -0.052357219311851 118.000000000000000
1.714162442312255 2.466356528972010 -0.052427028937600 118.000000000000000
1.722761189956356 2.460357959528844 -0.052427028937600 121.000000000000000
1.730910558639828 2.454631549668083 -0.052427028937600 120.000000000000000
1.748733087492636 2.461616265399819 -0.052706267440596 120.000000000000000
1.750332368993930 2.445740108840870 -0.052496838563349 118.000000000000000
1.756520023388706 2.436371238968174 -0.052427028937600 120.000000000000000
1.771638623663940 2.440242199137382 -0.052636457814847 115.000000000000000
1.775423992799804 2.427586811574749 -0.052496838563349 117.000000000000000
1.791003606269613 2.431034374849875 -0.052706267440596 112.000000000000000
1.787561511699112 2.408709730016865 -0.052357219311851 114.000000000000000
1.801168208465810 2.408547522211866 -0.052496838563349 114.000000000000000
1.816783642801943 2.411829024748600 -0.052706267440596 114.000000000000000
1.825191428732786 2.405472572666929 -0.052706267440596 114.000000000000000
1.832362685894462 2.397498011448722 -0.052671362627722 110.000000000000000
1.832985692697566 2.381899913067967 -0.052461933750474 105.000000000000000
1.842513983610908 2.377067584680570 -0.052496838563349 112.000000000000000
1.858183784439993 2.380078795463870 -0.052706267440596 112.000000000000000
1.867716568958368 2.375149929328191 -0.052741172253471 110.000000000000000
1.884686925327481 2.379588983345558 -0.052985505943593 112.000000000000000
1.884252593926385 2.362053033069118 -0.052741172253471 108.000000000000000
1.882057479112386 2.343318883725451 -0.052461933750474 102.000000000000000
1.900286804041127 2.349172712070462 -0.052741172253471 110.000000000000000
1.913527587949607 2.348726419156896 -0.052880791504969 110.000000000000000
1.921714515283717 2.342032652128847 -0.052880791504969 110.000000000000000
1.930285586283436 2.334973485347579 -0.052880791504969 107.000000000000000
1.930747476488283 2.319000627337791 -0.052671362627722 107.000000000000000
1.950800078595613 2.325697226534712 -0.052985505943593 112.000000000000000
1.962777748475005 2.323456248477935 -0.053090220382216 110.000000000000000
1.972657893319852 2.320325590759288 -0.053160030007966 110.000000000000000
1.976843657905779 2.308868615943215 -0.053055315569342 114.000000000000000
1.986598920033060 2.303121829044927 -0.053090220382216 104.000000000000000
1.994626212464593 2.296173273306899 -0.053090220382216 110.000000000000000
2.007895812973650 2.295216980682972 -0.053229839633715 110.000000000000000
2.018539179810169 2.291195043412960 -0.053299649259464 110.000000000000000
2.019491622601217 2.277008411779919 -0.053125125195091 107.000000000000000
2.030091724169896 2.272928043376276 -0.053194934820840 110.000000000000000
2.040687913857220 2.268801380737439 -0.053264744446589 110.000000000000000
2.051279997501336 2.264628401568969 -0.053334554072338 107.000000000000000
2.064563032738445 2.263363867485114 -0.053474173323837 102.000000000000000
2.071098294151922 2.254670729960811 -0.053439268510962 112.000000000000000
2.072166409812674 2.240087774405971 -0.053264744446589 107.000000000000000
2.088151289234235 2.241620107434964 -0.053474173323837 110.000000000000000
2.101044758747889 2.240517905079920 -0.053613792575335 107.000000000000000
2.114344629693392 2.238985787718111 -0.053753411826833 107.000000000000000
2.120769249584890 2.230142621452569 -0.053718507013959 112.000000000000000
2.121625641815034 2.215504835896966 -0.053543982949586 107.000000000000000
2.134898673508245 2.213843202376232 -0.053683602201084 107.000000000000000
2.148185888519286 2.212115830873029 -0.053823221452582 110.000000000000000
2.160715309586123 2.211076968977627 -0.053962840704081 105.000000000000000
2.160004642217823 2.194969365689287 -0.053753411826833 107.000000000000000
2.173283624109326 2.193097770364884 -0.053893031078331 112.000000000000000
2.185163273538623 2.189744668096501 -0.053997745516955 110.000000000000000
2.189958698109765 2.179282606341796 -0.053927935891206 110.000000000000000
2.211776112641718 2.185680771877080 -0.054276984019952 107.000000000000000
2.210828516668994 2.169543262846829 -0.054067555142704 110.000000000000000
2.218388166805949 2.161812813556306 -0.054067555142704 110.000000000000000
2.233105811717398 2.161009076916911 -0.054242079207077 112.000000000000000
2.242077386674691 2.154586503523979 -0.054276984019952 110.000000000000000
2.257888548799293 2.155424443586603 -0.054486412897199 105.000000000000000
2.259593635071859 2.142026850990242 -0.054346793645701 110.000000000000000
2.264144854498889 2.131385016099133 -0.054276984019952 110.000000000000000
2.278875069437474 2.130296564134602 -0.054451508084325 112.000000000000000
2.292530940388326 2.127370606212848 -0.054591127335823 112.000000000000000
2.304354537868480 2.123420478543411 -0.054695841774447 107.000000000000000
2.305483234769686 2.110366478311275 -0.054556222522948 105.000000000000000
2.312835742711019 2.102305982920277 -0.054556222522948 110.000000000000000
2.328699685142166 2.102665570138411 -0.054765651400196 105.000000000000000
2.339002895337597 2.097193965234597 -0.054835461025945 105.000000000000000
2.355270297542527 2.096994965566079 -0.055044889903192 105.000000000000000
2.356583243927100 2.083462700817246 -0.054905270651694 105.000000000000000
2.363841528840706 2.075223997013985 -0.054905270651694 107.000000000000000
2.380115147179345 2.074844152234881 -0.055114699528941 86.000000000000000
2.757766944134667 2.387168212351929 -0.063666378683210 45.000000000000000
2.776698364756875 2.386651548090008 -0.063910712373332 46.000000000000000
2.781555905374492 2.374833696159094 -0.063840902747583 47.000000000000000
2.792879335902137 2.367696018481843 -0.063910712373332 46.000000000000000
2.799597287599818 2.356644841394699 -0.063875807560458 42.000000000000000
2.826218302766516 2.362247298891374 -0.064294665314952 44.000000000000000
2.837524441670786 2.354921709375177 -0.064364474940702 44.000000000000000
2.836467948708522 2.337372393525231 -0.064155046063454 37.000000000000000
2.846157285963094 2.328723331305308 -0.064189950876329 41.000000000000000
2.855820784104111 2.320035089603320 -0.064224855689203 42.000000000000000
2.874797097895633 2.318840522664640 -0.064469189379325 41.000000000000000
2.895360577854946 2.318791660604773 -0.064748427882322 41.000000000000000
2.894045860727101 2.301203440292873 -0.064538999005074 41.000000000000000
2.903630458232346 2.292326410651661 -0.064573903817949 37.000000000000000
2.917909863412525 2.287111319750712 -0.064713523069447 37.000000000000000
2.935344447930001 2.284280626875133 -0.064922951946695 38.000000000000000
2.948834200416462 2.279940288753917 -0.065062571198193 38.000000000000000
2.958360964432804 2.270850660597743 -0.065097476011067 39.000000000000000
2.968649491474191 2.260686172324287 -0.065132380823942 37.000000000000000
2.976522672832389 2.250309878901778 -0.065132380823942 36.000000000000000
3.000352938753141 2.251909950548135 -0.065481428952688 37.000000000000000
3.014609354688911 2.246202198524143 -0.065621048204186 38.000000000000000
3.009181703388222 2.226677328195205 -0.065341809701189 31.000000000000000
3.028217202286970 2.224446680315878 -0.065586143391311 36.000000000000000
3.050505124120476 2.224466596720803 -0.065900286707183 33.000000000000000
3.061491049942031 2.216149926677947 -0.065970096332932 31.000000000000000
3.075703883909887 2.210117445749657 -0.066109715584430 30.000000000000000
3.080143929160629 2.197045312795322 -0.066039905958681 30.000000000000000
3.089044483162659 2.187974931397489 -0.066074810771555 28.000000000000000
3.103206519475225 2.181779307524751 -0.066214430023054 27.000000000000000
3.122662674230376 2.178399654722273 -0.066458763713176 26.000000000000000
3.136823834334527 2.172039798838255 -0.066598382964674 25.000000000000000
3.144386557528014 2.161077007471880 -0.066598382964674 25.000000000000000
3.148607077460709 2.147834123179400 -0.066528573338925 25.000000000000000
3.168582964466915 2.146905380673996 -0.066807811841921 25.000000000000000
3.189332817233055 2.144759079383110 -0.067087050344918 25.000000000000000
3.204199189051860 2.136935219367770 -0.067226669596416 22.000000000000000
3.201633858115010 2.119115222921581 -0.067017240719169 23.000000000000000
3.218301305327925 2.115637323129734 -0.067226669596416 23.000000000000000
3.237390257477633 2.112038821732313 -0.067471003286538 25.000000000000000
3.253503493671182 2.105591389443553 -0.067645527350911 24.000000000000000
3.272611594364364 2.101785983205657 -0.067889861041033 25.000000000000000
3.271860413657245 2.084404967054334 -0.067715336976660 23.000000000000000
3.282496943895093 2.075108427822379 -0.067785146602409 22.000000000000000
3.302548798250633 2.073291748561578 -0.068064385105406 21.000000000000000
3.316555079983364 2.065980303687870 -0.068204004356904 22.000000000000000
3.330909718198030 2.058014965525274 -0.068343623608402 21.000000000000000
3.338073238008120 2.046375382672021 -0.068343623608402 23.000000000000000
3.349965793388171 2.038413110276658 -0.068448338047026 21.000000000000000
3.362196511911183 2.029807649578446 -0.068553052485650 23.000000000000000
3.379201093168715 2.024813989749227 -0.068762481362897 24.000000000000000
3.434377844987213 2.041617294183233 -0.069739816123385 0.000000000000000
7.246406940522819 4.273572174555485 -0.146844547763303 68.000000000000000
7.266458342510012 4.251280874148986 -0.146949262201927 78.000000000000000
7.302747528071476 4.236661088459457 -0.147368119956422 83.000000000000000
7.341756283439112 4.225107932943348 -0.147856787336666 87.000000000000000
7.380773068747713 4.213333897724377 -0.148345454716910 86.000000000000000
7.390215075156495 4.184588608913836 -0.148240740278286 83.000000000000000
7.422499939185299 4.172129115135281 -0.148624693219906 88.000000000000000
7.454484156295581 4.155931759296191 -0.148973741348652 90.000000000000000
7.490668210815909 4.140189803234290 -0.149392599103147 90.000000000000000
7.527870321635238 4.126513115032774 -0.149846361670516 81.000000000000000
7.537999541535332 4.099616310860167 -0.149776552044767 78.000000000000000
7.566344142738929 4.080872893556401 -0.150055790547764 77.000000000000000
7.606992856342484 4.068583234870708 -0.150579362740882 83.000000000000000
7.633514776371126 4.048563741812467 -0.150823696431004 81.000000000000000
7.677688154159975 4.037716368925121 -0.151417078249872 86.000000000000000
7.700601171501667 4.015514610056222 -0.151591602314245 81.000000000000000
7.727005279930557 3.995038829906787 -0.151835936004367 83.000000000000000
7.762257708846149 3.978988532182014 -0.152254793758861 83.000000000000000
7.799274668051957 3.963646647862015 -0.152708556326231 81.000000000000000
7.830921290379029 3.945395431842914 -0.153057604454976 78.000000000000000
7.848223527407845 3.919823396391595 -0.153127414080726 78.000000000000000
7.869026773612941 3.895953137892737 -0.153267033332224 77.000000000000000
7.915329746885487 3.887963539434222 -0.153930224776841 78.000000000000000
7.948630233896242 3.869939087291384 -0.154314177718461 83.000000000000000
7.982573223590919 3.850336247443794 -0.154698130660081 83.000000000000000
8.015810353132000 3.831935533117386 -0.155082083601701 83.000000000000000
8.045401758533234 3.811637254048465 -0.155396226917572 81.000000000000000
8.076759048254301 3.792028835035806 -0.155745275046318 81.000000000000000
8.115329561025895 3.775621944948024 -0.156233942426562 81.000000000000000
8.150251616367854 3.757317459317037 -0.156652800181057 75.000000000000000
8.174230973752390 3.733829967853638 -0.156862229058304 75.000000000000000
8.205432773586187 3.713518764256205 -0.157211277187050 77.000000000000000
8.238951321670477 3.697547546645292 -0.157630134941545 81.000000000000000
8.281043788876914 3.681763997020068 -0.158188611947538 81.000000000000000
8.320105356095382 3.662667386550144 -0.158677279327782 81.000000000000000
8.349336805346798 3.640796154470484 -0.158991422643653 83.000000000000000
8.378516741750627 3.618765389585071 -0.159305565959524 78.000000000000000
8.414998568294987 3.599721107605693 -0.159759328526893 74.000000000000000
6.297158256730087 2.667798273481039 -0.119374460031019 60.000000000000000
6.276928469515926 2.633422820353439 -0.118815983025026 58.000000000000000
6.257474512055571 2.602172868299584 -0.118292410831908 12.000000000000000
6.242481675550809 2.570416422175121 -0.117838648264538 38.000000000000000
6.258822963018479 2.551630115433368 -0.117978267516037 57.000000000000000
6.251002563533681 2.523031134285022 -0.117664124200165 61.000000000000000
6.241637174045988 2.492686614978622 -0.117315076071420 60.000000000000000
6.207528184333772 2.453975291790645 -0.116512265375305 58.000000000000000
6.182536561733492 2.419176009780849 -0.115883978743563 63.000000000000000
6.168566491927128 2.388914238835047 -0.115465120989068 60.000000000000000
6.161517488056515 2.362717599894166 -0.115185882486071 61.000000000000000
6.147292001249958 2.332682057504317 -0.114767024731576 63.000000000000000
6.119827620807158 2.297854261443712 -0.114103833286960 67.000000000000000
6.092195433189453 2.263246788267681 -0.113440641842343 64.000000000000000
6.083166053298382 2.235758744437631 -0.113126498526472 67.000000000000000
6.070260533104607 2.206994829773649 -0.112742545584851 64.000000000000000
6.057228576661098 2.178348346050144 -0.112358592643231 63.000000000000000
6.027114288995135 2.143788534566219 -0.111660496385740 63.000000000000000
6.009668648129724 2.115159521653182 -0.111206733818371 66.000000000000000
6.001906681156216 2.088910548940627 -0.110927495315374 66.000000000000000
5.990253146693752 2.061440187234011 -0.110578447186628 66.000000000000000
5.974694949836474 2.032788508737368 -0.110159589432134 67.000000000000000
5.943847117783942 1.999170733560168 -0.109461493174642 67.000000000000000
5.928018436506657 1.970840206637210 -0.109042635420147 66.000000000000000
5.913964436311172 1.943268879174650 -0.108658682478527 63.000000000000000
5.905496231451690 1.917672588434596 -0.108379443975531 63.000000000000000
5.890879336162181 1.891354440789397 -0.107995491033910 66.000000000000000
5.863135868244235 1.859896253538562 -0.107367204402168 66.000000000000000
5.854006584264924 1.835656579794405 -0.107087965899172 67.000000000000000
5.827905794353454 1.805152889841471 -0.106494584080304 30.000000000000000
5.778717180138069 1.767834049613946 -0.105482344506942 9.000000000000000
5.784852866642641 1.747651792060917 -0.105482344506942 13.000000000000000
5.766306882883130 1.719010741499422 -0.105028581939572 49.000000000000000
5.764598876914913 1.696613713777402 -0.104888962688074 39.000000000000000
5.814652825768616 1.689312808457912 -0.105691773384189 8.000000000000000
7.241042603343676 2.076335554591745 -0.131486430098494 40.000000000000000
7.270617292579614 2.060118729558739 -0.131905287852989 45.000000000000000
7.293170905167875 2.039034428106805 -0.132184526355985 45.000000000000000
7.321448859273504 2.019412835291343 -0.132568479297606 42.000000000000000
7.361255771129291 2.002768431636492 -0.133161861116473 41.000000000000000
7.395587379116657 1.983025177369912 -0.133650528496717 40.000000000000000
7.443062897203149 1.967931852290362 -0.134383529567083 41.000000000000000
7.461157554901450 1.946267370243412 -0.134592958444330 43.000000000000000
7.493082908370428 1.926684953860119 -0.135046721011700 46.000000000000000
7.531110388189672 1.907062545165258 -0.135605198017693 43.000000000000000
7.562944145220423 1.887055859141601 -0.136058960585062 42.000000000000000
7.600229162275964 1.869608610548228 -0.136617437591055 41.000000000000000
nan nan nan nan
5.519945542963502 1.318091175550672 -0.099059858938021 34.000000000000000
5.510886557196722 1.295611379109664 -0.098815525247899 70.000000000000000
5.503686265518303 1.273661779478261 -0.098606096370652 78.000000000000000
5.490550719586171 1.250446115438988 -0.098291953054781 75.000000000000000
5.469515142255584 1.225588755300498 -0.097838190487411 78.000000000000000
5.458137347628292 1.203045695438411 -0.097558951984415 82.000000000000000
5.442760382695059 1.179749825665390 -0.097209903855669 82.000000000000000
5.437066422491482 1.158659938240920 -0.097035379791296 83.000000000000000
5.429135878624249 1.138161827977246 -0.096825950914049 88.000000000000000
5.401738593965846 1.112748280577081 -0.096267473908056 86.000000000000000
5.389910162431842 1.090712931791763 -0.095988235405059 78.000000000000000
5.377993904987743 1.068773758017427 -0.095708996902063 76.000000000000000
5.373841103053979 1.048462823939444 -0.095569377650565 78.000000000000000
5.363720089511868 1.027065692816553 -0.095325043960443 75.000000000000000
5.341723458178175 1.003536713985019 -0.094871281393073 76.000000000000000
5.329461184677343 0.981985654905128 -0.094592042890077 32.000000000000000
3.597218322987692 0.649834695433521 -0.063805997934709 31.000000000000000
3.577804955054610 0.633439300798089 -0.063422044993088 46.000000000000000
3.548469833139952 0.615478687783466 -0.062863567987095 54.000000000000000
3.532853510311120 0.600074698813155 -0.062549424671224 62.000000000000000
3.521118331373354 0.585443227054821 -0.062305090981102 69.000000000000000
3.515245465122174 0.571864296894487 -0.062165471729604 76.000000000000000
3.536968797461183 0.562732316997056 -0.062514519858350 80.000000000000000
3.550767201484029 0.552226391184168 -0.062723948735597 78.000000000000000
3.536857180136426 0.537425292930450 -0.062444710232600 73.000000000000000
3.518931207725482 0.522141057611415 -0.062095662103855 74.000000000000000
3.536475352120786 0.512764522579765 -0.062374900606851 75.000000000000000
3.554083615888032 0.502657050212824 -0.062654139109848 75.000000000000000
3.557711853781207 0.491141984803519 -0.062689043922722 66.000000000000000
3.551477180027736 0.477654068563785 -0.062549424671224 62.000000000000000
3.559071175435026 0.466033075049342 -0.062654139109848 60.000000000000000
3.554725260419077 0.452848641835024 -0.062549424671224 65.000000000000000
3.550330739552256 0.439700236472876 -0.062444710232600 69.000000000000000
nan nan nan nan
3.368528472797455 0.393923162729435 -0.059198562635266 6.000000000000000
3.367896039699271 0.381937072527722 -0.059163657822391 5.000000000000000
3.375171931799748 0.370833777912272 -0.059268372261015 5.000000000000000
3.386388240515287 0.360107243159914 -0.059442896325388 4.000000000000000
3.387624618337239 0.348284348359106 -0.059442896325388 3.000000000000000
3.376880248491380 0.335271805678420 -0.059233467448140 4.000000000000000
3.453672384671024 0.330725813761004 -0.060559850337374 9.000000000000000
3.544411706166779 0.326933402763481 -0.062130566916729 57.000000000000000
3.575409395888920 0.317209884211744 -0.062654139109848 56.000000000000000
3.596419644978647 0.306425089719236 -0.063003187238593 51.000000000000000
3.627363208149143 0.296311503323892 -0.063526759431712 31.000000000000000
3.634356267799111 0.284115388957377 -0.063631473870336 11.000000000000000
4.973396999100861 0.371332914770091 -0.087052603309170 60.000000000000000
4.972668240905992 0.353828328477678 -0.087017698496296 67.000000000000000
4.971877901470430 0.336333356170654 -0.086982793683421 74.000000000000000
4.949074498922329 0.317440213446858 -0.086563935928926 74.000000000000000
4.936127900583309 0.300177073328967 -0.086319602238804 78.000000000000000
4.929159963176128 0.282487288127847 -0.086179982987306 78.000000000000000
4.930115997698912 0.265279587917291 -0.086179982987306 77.000000000000000
4.927017620937594 0.247867708695770 -0.086110173361557 78.000000000000000
4.899927664305063 0.228503484199724 -0.085621505981313 78.000000000000000
4.884712738113828 0.210708717167009 -0.085342267478316 78.000000000000000
4.881388390956990 0.194350159665804 -0.085272457852567 78.000000000000000
4.882037060528340 0.177309750322971 -0.085272457852567 78.000000000000000
4.870634529952426 0.159873564846259 -0.085063028975320 81.000000000000000
4.847176889297821 0.142167394769156 -0.084644171220825 78.000000000000000
4.835627566442698 0.125780813103004 -0.084434742343578 77.000000000000000
4.828040408817711 0.108720481263665 -0.084295123092079 78.000000000000000
4.828390500045125 0.091866812815490 -0.084295123092079 75.000000000000000
4.812686125702406 0.074763537959859 -0.084015884589083 77.000000000000000
4.798930939977295 0.056957533203361 -0.083771550898961 72.000000000000000
4.781103895183622 0.040055019404679 -0.083457407583090 75.000000000000000
4.777215242148741 0.023346063665118 -0.083387597957341 77.000000000000000
4.769268856924615 0.006659159884753 -0.083247978705842 77.000000000000000
4.773264099845767 -0.009164020466184 -0.083317788331591 77.000000000000000
4.745207705390885 -0.025674294954507 -0.082829120951348 78.000000000000000
4.743089559775756 -0.042220205118330 -0.082794216138473 83.000000000000000
4.728916494226115 -0.058602965317124 -0.082549882448351 78.000000000000000
4.728683121524731 -0.075109607340850 -0.082549882448351 81.000000000000000
4.726392811171702 -0.091576596192861 -0.082514977635476 83.000000000000000
4.710050972484214 -0.107708494603921 -0.082235739132480 83.000000000000000
4.679661289761060 -0.123358562272502 -0.081712166939361 78.000000000000000
4.687221748639580 -0.139113493872767 -0.081851786190860 81.000000000000000
4.674716019828416 -0.155076302031780 -0.081642357313612 81.000000000000000
4.680141279692879 -0.171612990110416 -0.081747071752236 40.000000000000000
4.655536712432574 -0.186985670040372 -0.081328213997741 24.000000000000000
4.652893240568164 -0.202336081203678 -0.081293309184867 23.000000000000000
4.662146068265659 -0.219045726506438 -0.081467833249239 59.000000000000000
4.673294717779028 -0.236738897585833 -0.081677262126487 74.000000000000000
4.668446335147046 -0.252834015805747 -0.081607452500738 70.000000000000000
4.639586024558341 -0.267516846990054 -0.081118785120494 70.000000000000000
4.634632019441397 -0.283466237742367 -0.081048975494745 70.000000000000000
4.629675429234783 -0.298576279424356 -0.080979165868995 68.000000000000000
4.628604997955423 -0.314735043484571 -0.080979165868995 74.000000000000000
4.615568084171387 -0.329228659087815 -0.080769736991748 70.000000000000000
4.596443673493058 -0.343994845676376 -0.080455593675877 67.000000000000000
4.581197087485204 -0.359743518897247 -0.080211259985755 68.000000000000000
4.579913438041462 -0.375732689313472 -0.080211259985755 70.000000000000000
4.578505546499487 -0.392516387485834 -0.080211259985755 72.000000000000000
4.573123957339285 -0.408140439975838 -0.080141450360006 72.000000000000000
4.555815943902247 -0.421828297300440 -0.079862211857009 72.000000000000000
4.542372597106662 -0.436580603346113 -0.079652782979762 72.000000000000000
4.540899868147954 -0.451641253228128 -0.079652782979762 74.000000000000000
4.543274029789733 -0.467898919069515 -0.079722592605511 72.000000000000000
4.533743504624107 -0.482116567471875 -0.079582973354013 74.000000000000000
4.514143378749839 -0.495973798373834 -0.079268830038142 77.000000000000000
4.496399863617706 -0.510710202451235 -0.078989591535145 77.000000000000000
4.498561998895696 -0.526867680902561 -0.079059401160894 77.000000000000000
4.496790108083947 -0.541782553176501 -0.079059401160894 78.000000000000000
4.490902556573211 -0.556983726686258 -0.078989591535145 78.000000000000000
4.473161530270657 -0.569851388023427 -0.078710353032149 77.000000000000000
4.463214047857517 -0.584423650103659 -0.078570733780650 78.000000000000000
4.461146837188858 -0.599999614027388 -0.078570733780650 81.000000000000000
4.455063451644730 -0.615021338431578 -0.078500924154901 69.000000000000000
4.448929600833352 -0.630007910349153 -0.078431114529152 70.000000000000000
4.426913846374367 -0.642660865220185 -0.078082066400406 69.000000000000000
4.420687698380848 -0.657521376973527 -0.078012256774657 70.000000000000000
4.414411793403794 -0.672346259891387 -0.077942447148908 69.000000000000000
4.412157940925663 -0.686981280137275 -0.077942447148908 69.000000000000000
4.405783444208518 -0.701749310696713 -0.077872637523159 67.000000000000000
4.391464887936763 -0.715195472609671 -0.077663208645912 69.000000000000000
4.375133729272119 -0.728221922758452 -0.077418874955790 66.000000000000000
4.374536505532382 -0.743824760117652 -0.077453779768664 67.000000000000000
4.371913421407399 -0.759090210526654 -0.077453779768664 70.000000000000000
4.365299043402794 -0.773648487901048 -0.077383970142915 69.000000000000000
4.350765221436215 -0.786746514527719 -0.077174541265668 67.000000000000000
4.334226764261314 -0.799389829259347 -0.076930207575546 64.000000000000000
4.327479468366828 -0.813775110267297 -0.076860397949797 66.000000000000000
4.322937488603825 -0.826990515802884 -0.076825493136922 67.000000000000000
4.314136150273738 -0.840927582504715 -0.076720778698298 63.000000000000000
4.297295640345785 -0.854005581260461 -0.076476445008176 67.000000000000000
4.294288423959332 -0.869000739474819 -0.076476445008176 69.000000000000000
4.287311741186091 -0.883178385128074 -0.076406635382427 67.000000000000000
4.284202753535862 -0.898138515299996 -0.076406635382427 69.000000000000000
4.281041564227093 -0.913087701937545 -0.076406635382427 69.000000000000000
4.266102780407085 -0.925482065047049 -0.076197206505180 69.000000000000000
4.258940760977931 -0.939506367155159 -0.076127396879431 70.000000000000000
4.255635324823243 -0.954367120955523 -0.076127396879431 72.000000000000000
4.252616096317820 -0.967731862027360 -0.076127396879431 72.000000000000000
4.253108745705060 -0.983471394056756 -0.076197206505180 70.000000000000000
4.222222869148601 -0.992646090176214 -0.075708539124936 57.000000000000000
4.172051863867763 -0.996231702451089 -0.074870823615946 45.000000000000000
4.184095984404141 -1.014558653532000 -0.075150062118943 46.000000000000000
4.184412468306010 -1.030113715072232 -0.075219871744692 61.000000000000000
4.186793861522999 -1.045437405027027 -0.075324586183316 64.000000000000000
4.150165887760767 -1.051694989605415 -0.074731204364448 50.000000000000000
4.158089688361672 -1.069163245266911 -0.074940633241695 37.000000000000000
4.171746807149256 -1.088213809710788 -0.075254776557567 45.000000000000000
7.295798102487069 -1.930357752754072 -0.131730763788616 61.000000000000000
7.290946824609078 -1.956331313786296 -0.131765668601490 64.000000000000000
7.256715040533225 -1.975686505863024 -0.131277001221247 64.000000000000000
7.238208684299863 -1.997812887636353 -0.131067572343999 63.000000000000000
7.229265168360338 -2.022528013544351 -0.131032667531125 60.000000000000000
7.218313469860977 -2.046659566384415 -0.130962857905375 61.000000000000000
7.209203376597292 -2.071291516411248 -0.130927953092501 63.000000000000000
7.194249289083873 -2.094208102898870 -0.130788333841003 67.000000000000000
7.169632950149138 -2.114217549293967 -0.130474190525132 61.000000000000000
7.162209273811154 -2.139231358161223 -0.130474190525132 61.000000000000000
7.155075946729720 -2.162970337784736 -0.130474190525132 60.000000000000000
7.149394294100706 -2.188518358048274 -0.130509095338006 64.000000000000000
7.127955261228300 -2.210561215121767 -0.130264761647884 61.000000000000000
7.101116770476210 -2.229439059369494 -0.129915713519138 60.000000000000000
7.097496399397967 -2.254185578941017 -0.129985523144888 60.000000000000000
7.093392093456916 -2.280170655652956 -0.130055332770637 60.000000000000000
7.077783167102756 -2.302442908490394 -0.129915713519138 59.000000000000000
7.054507528437157 -2.322133052942673 -0.129636475016142 57.000000000000000
7.038769822776255 -2.344216275500496 -0.129496855764644 61.000000000000000
7.030544098322093 -2.368771885576039 -0.129496855764644 61.000000000000000
7.029803849293760 -2.395879008798238 -0.129636475016142 60.000000000000000
7.017616799336152 -2.419099612850749 -0.129566665390393 60.000000000000000
6.997800399714108 -2.439631175223574 -0.129357236513145 58.000000000000000
6.970382604411618 -2.457394399652949 -0.129008188384400 54.000000000000000
6.961762231216549 -2.481710604268063 -0.129008188384400 56.000000000000000
6.964344461391057 -2.510064746272679 -0.129217617261647 33.000000000000000
3.972162883084162 -1.446534219097003 -0.073788774416835 17.000000000000000
3.929557744001148 -1.446574467259401 -0.073090678159343 67.000000000000000
3.909237109073549 -1.455385763053028 -0.072811439656347 70.000000000000000
3.919105754131761 -1.474656516175050 -0.073090678159343 79.000000000000000
3.913934365743196 -1.488327764109981 -0.073090678159343 86.000000000000000
3.908715287299547 -1.501980877240797 -0.073090678159343 88.000000000000000
3.895992138110171 -1.512720530298956 -0.072951058907845 84.000000000000000
3.883241729467185 -1.523389695639258 -0.072811439656347 84.000000000000000
3.883477487070585 -1.539145815667877 -0.072916154094971 86.000000000000000
3.874368347095670 -1.551205763630553 -0.072846344469221 90.000000000000000
3.876345319252097 -1.567719367429044 -0.072985963720720 88.000000000000000
3.859742169689961 -1.576703510331988 -0.072776534843472 88.000000000000000
3.839426577823096 -1.584065559100681 -0.072497296340476 92.000000000000000
3.837565507747008 -1.598996244173871 -0.072567105966225 92.000000000000000
3.839333289028883 -1.615484332286383 -0.072706725217723 90.000000000000000
3.829989892906202 -1.627312292932622 -0.072636915591974 92.000000000000000
3.817221059563949 -1.636851711195856 -0.072497296340476 97.000000000000000
3.804143760777507 -1.646988346620536 -0.072357677088977 97.000000000000000
3.802036135571634 -1.661859044256073 -0.072427486714727 97.000000000000000
3.799871001161322 -1.676735076437709 -0.072497296340476 97.000000000000000
3.786688270753638 -1.686734213414523 -0.072357677088977 97.000000000000000
3.784425038374895 -1.701582025084117 -0.072427486714727 102.000000000000000
3.767536678385767 -1.709823361970505 -0.072218057837479 105.000000000000000
3.765181427806787 -1.724629606587011 -0.072287867463228 105.000000000000000
3.760953540273584 -1.738601128641614 -0.072322772276103 102.000000000000000
3.762110544676197 -1.755100410646146 -0.072462391527601 105.000000000000000
3.741487342031729 -1.761407977112564 -0.072183153024605 107.000000000000000
3.731703594982913 -1.772741364355061 -0.072113343398855 107.000000000000000
3.729099317045300 -1.787485349878903 -0.072183153024605 107.000000000000000
3.724637321198270 -1.801362089547561 -0.072218057837479 112.000000000000000
3.723718186166173 -1.816983292885659 -0.072322772276103 117.000000000000000
3.704794419546934 -1.823788092839983 -0.072078438585981 124.000000000000000
3.695463935616883 -1.833640384020337 -0.072008628960232 124.000000000000000
3.696193591592488 -1.850109068068855 -0.072148248211730 126.000000000000000
3.693283101442306 -1.864802532367136 -0.072218057837479 126.000000000000000
3.686751225099056 -1.877683135236824 -0.072218057837479 129.000000000000000
3.672730161891697 -1.887526915469551 -0.072078438585981 130.000000000000000
3.662568367197739 -1.898495117970483 -0.072008628960232 133.000000000000000
3.658024891351924 -1.911556335421801 -0.072043533773106 135.000000000000000
3.660175304816991 -1.928975191683404 -0.072218057837479 139.000000000000000
3.656951205905639 -1.943616819705704 -0.072287867463228 139.000000000000000
3.636044410905650 -1.948812920543441 -0.072008628960232 141.000000000000000
3.625701241963013 -1.959591618246165 -0.071938819334483 142.000000000000000
3.622350632797859 -1.974149601834731 -0.072008628960232 142.000000000000000
3.618595375025986 -1.989339641823776 -0.072078438585981 145.000000000000000
3.611629238068550 -2.001958777152864 -0.072078438585981 143.000000000000000
3.601127938040571 -2.012602377823034 -0.072008628960232 145.000000000000000
3.588854218672180 -2.022215424774364 -0.071903914521608 146.000000000000000
3.586989680017060 -2.037693743624487 -0.072008628960232 150.000000000000000
3.586796014606350 -2.054177446055717 -0.072148248211730 150.000000000000000
3.586530893239764 -2.070684576668886 -0.072287867463228 150.000000000000000
3.563726427781312 -2.074138310471461 -0.071973724147357 149.000000000000000
3.552017401367451 -2.082289899564015 -0.071869009708734 150.000000000000000
3.548170367242292 -2.096710721891903 -0.071938819334483 150.000000000000000
3.555552362956491 -2.119534596005161 -0.072252962650354 149.000000000000000
3.554988438877353 -2.136052554019667 -0.072392581901852 149.000000000000000
3.531152005155500 -2.136857329287047 -0.072043533773106 148.000000000000000
3.520257057771168 -2.147087802174059 -0.071973724147357 149.000000000000000
3.519555116388023 -2.163551582100766 -0.072113343398855 146.000000000000000
3.508581681211072 -2.173717625523510 -0.072043533773106 145.000000000000000
3.509071155330609 -2.191859525368558 -0.072218057837479 141.000000000000000
3.491244872143536 -2.197703346697806 -0.072008628960232 140.000000000000000
3.480560284012082 -2.207126846293729 -0.071938819334483 138.000000000000000
3.476204817093933 -2.221416401075720 -0.072008628960232 138.000000000000000
3.471791958932228 -2.235702415927605 -0.072078438585981 137.000000000000000
3.480741407169305 -2.258692877658500 -0.072427486714727 127.000000000000000
3.452357926604136 -2.258299250314019 -0.072008628960232 124.000000000000000
3.441114691137881 -2.268135465246246 -0.071938819334483 121.000000000000000
3.437304499856026 -2.281146319863060 -0.072008628960232 124.000000000000000
3.439294660275968 -2.299800163474947 -0.072218057837479 121.000000000000000
3.437475221591629 -2.316860908106023 -0.072357677088977 117.000000000000000
3.419441116751586 -2.322105311855741 -0.072148248211730 114.000000000000000
3.411314624153010 -2.334027241768996 -0.072148248211730 112.000000000000000
3.401500147491475 -2.344785792416722 -0.072113343398855 102.000000000000000
3.400276437485088 -2.360614254399047 -0.072252962650354 100.000000000000000
3.401847569741825 -2.379345774379114 -0.072462391527601 97.000000000000000
3.383713512573805 -2.384294942789941 -0.072252962650354 92.000000000000000
3.372108928113582 -2.393776716687691 -0.072183153024605 97.000000000000000
3.369818088373419 -2.410774039158714 -0.072322772276103 88.000000000000000
3.367871541663114 -2.427198895984798 -0.072462391527601 97.000000000000000
3.359804142370437 -2.438353814917874 -0.072462391527601 90.000000000000000
3.344815058172014 -2.445346119312367 -0.072322772276103 86.000000000000000
3.339049863204397 -2.459961244637866 -0.072392581901852 90.000000000000000
3.330442653369985 -2.471601716842638 -0.072392581901852 90.000000000000000
3.331839289687991 -2.489814429977113 -0.072602010779099 90.000000000000000
3.335909177937357 -2.511050433594751 -0.072881249282096 88.000000000000000
3.311189152435004 -2.510597832507749 -0.072532201153350 90.000000000000000
3.299226911695442 -2.519713274751446 -0.072462391527601 88.000000000000000
3.302647650587919 -2.541545032323172 -0.072741630030598 88.000000000000000
3.300077870221430 -2.557958243204505 -0.072881249282096 82.000000000000000
3.297882933565968 -2.573808871935314 -0.073020868533594 84.000000000000000
3.279445842022774 -2.577890118584325 -0.072811439656347 86.000000000000000
3.264156153347529 -2.584356672961862 -0.072671820404849 90.000000000000000
3.264495914098641 -2.603215463678786 -0.072881249282096 90.000000000000000
3.261625485531367 -2.619603623621498 -0.073020868533594 86.000000000000000
3.258680347120906 -2.636003402561351 -0.073160487785092 86.000000000000000
3.240617918167853 -2.639218378886762 -0.072951058907845 84.000000000000000
3.231385583845178 -2.650514167387485 -0.072951058907845 86.000000000000000
3.233980930999951 -2.672530759686371 -0.073230297410842 88.000000000000000
3.227706361261234 -2.686361617463700 -0.073300107036591 86.000000000000000
3.224911328219341 -2.702187545623971 -0.073439726288089 80.000000000000000
3.206289725473580 -2.705690211362652 -0.073230297410842 86.000000000000000
3.196825570293899 -2.716865767139814 -0.073230297410842 82.000000000000000
3.193399340711611 -2.733209378381322 -0.073369916662340 82.000000000000000
3.189897889695780 -2.749562110854042 -0.073509535913838 80.000000000000000
3.186321112042472 -2.765923638298037 -0.073649155165336 80.000000000000000
3.171592080519811 -2.770657687790708 -0.073509535913838 80.000000000000000
3.158898602590863 -2.779070028831988 -0.073439726288089 84.000000000000000
3.155165624315613 -2.795384045716623 -0.073579345539587 80.000000000000000
3.151357170180605 -2.811705799009103 -0.073718964791086 78.000000000000000
3.135081664636532 -2.817890174575617 -0.073579345539587 82.000000000000000
3.131156512988887 -2.834184257488812 -0.073718964791086 78.000000000000000
3.118784609199478 -2.841858258844711 -0.073649155165336 82.000000000000000
3.117685991389544 -2.860839556608623 -0.073858584042584 80.000000000000000
3.113555436631883 -2.877133436066062 -0.073998203294082 84.000000000000000
3.112276869767093 -2.896157784589830 -0.074207632171329 76.000000000000000
3.090980659905139 -2.895525712664631 -0.073928393668333 82.000000000000000
3.080854557666466 -2.906297608146039 -0.073928393668333 82.000000000000000
3.079389757309609 -2.925297643974861 -0.074137822545580 80.000000000000000
3.074939764215330 -2.941558142904446 -0.074277441797079 88.000000000000000
3.070413702619233 -2.957823151541171 -0.074417061048577 84.000000000000000
3.054329047025119 -2.962953414102003 -0.074277441797079 78.000000000000000
3.038764026243396 -2.967477173640470 -0.074137822545580 77.000000000000000
3.029812878953218 -2.979468463509124 -0.074172727358455 71.000000000000000
3.034499333770651 -3.006033781375071 -0.074556680300075 82.000000000000000
3.023987830489108 -3.016607846982504 -0.074556680300075 76.000000000000000
3.013439480870163 -3.027145156175303 -0.074556680300075 77.000000000000000
3.005666074877932 -3.040489817994665 -0.074626489925824 76.000000000000000
2.998369135272656 -3.053293793836029 -0.074696299551573 77.000000000000000
2.987692883879264 -3.063741453590773 -0.074696299551573 82.000000000000000
2.988109126441004 -3.085643938819483 -0.074975538054570 80.000000000000000
2.974547835691300 -3.093172854050150 -0.074905728428821 80.000000000000000
2.963732525527444 -3.103537118994916 -0.074905728428821 80.000000000000000
2.958385075451460 -3.119667601065473 -0.075045347680319 78.000000000000000
2.958444737522898 -3.141621705702228 -0.075324586183316 79.000000000000000
2.952923726054141 -3.157771781146418 -0.075464205434814 78.000000000000000
2.941883055295468 -3.168060170303508 -0.075464205434814 77.000000000000000
2.925384139843818 -3.172429643201967 -0.075324586183316 76.000000000000000
2.920250768420177 -3.188011386936919 -0.075464205434814 74.000000000000000
2.914486988232623 -3.204102628992326 -0.075603824686312 80.000000000000000
2.909986777004491 -3.221676364801350 -0.075778348750685 74.000000000000000
2.900058501095198 -3.233303116135199 -0.075813253563560 77.000000000000000
2.886094503913714 -3.240419948892349 -0.075743443937810 78.000000000000000
2.890663066446443 -3.268449531518482 -0.076162301692305 78.000000000000000
2.877916897482839 -3.277017386378521 -0.076127396879431 72.000000000000000
2.871717587752838 -3.293071732963239 -0.076267016130929 72.000000000000000
2.857587090032162 -3.300052425129384 -0.076197206505180 72.000000000000000
2.846050347965625 -3.310007160500647 -0.076197206505180 72.000000000000000
2.839672659103302 -3.326004792265727 -0.076336825756678 72.000000000000000
2.838390366230280 -3.348099476955320 -0.076616064259675 69.000000000000000
2.829261593739974 -3.361046579703169 -0.076685873885424 69.000000000000000
2.812382370504225 -3.364764787169908 -0.076546254633925 70.000000000000000
2.808282450605214 -3.383794060322156 -0.076755683511173 67.000000000000000
2.796453696062015 -3.393576180201327 -0.076755683511173 67.000000000000000
2.792188659884830 -3.412602944833400 -0.076965112388420 70.000000000000000
2.790346550702254 -3.434745323490433 -0.077244350891417 72.000000000000000
2.774518202262730 -3.437270371337049 -0.077104731639919 69.000000000000000
2.761252419043391 -3.445373901352344 -0.077069826827044 66.000000000000000
2.762299181766710 -3.472686012643601 -0.077453779768664 70.000000000000000
2.756357262914614 -3.490153647853038 -0.077628303833037 74.000000000000000
2.745391444267865 -3.501327497359198 -0.077663208645912 70.000000000000000
2.735609571185820 -3.514045226218198 -0.077733018271661 72.000000000000000
2.725772333580724 -3.526737288976465 -0.077802827897410 72.000000000000000
2.720749141274327 -3.545749314044627 -0.078012256774657 69.000000000000000
2.713202759520771 -3.561587717578000 -0.078151876026156 69.000000000000000
2.705578897484245 -3.577416563842563 -0.078291495277654 70.000000000000000
2.694901817101092 -3.587967833082411 -0.078326400090528 74.000000000000000
2.681165705779465 -3.595749838339604 -0.078291495277654 70.000000000000000
2.676294865619236 -3.616804931956997 -0.078535828967776 74.000000000000000
2.671940477633282 -3.637406187100421 -0.078780162657898 78.000000000000000
2.662220703248517 -3.649477717299536 -0.078849972283647 81.000000000000000
2.649465429530236 -3.658748367897829 -0.078849972283647 75.000000000000000
2.642513813312242 -3.676093017788170 -0.079024496348020 83.000000000000000
2.630827268061393 -3.686922496705445 -0.079059401160894 78.000000000000000
2.624876423245484 -3.705874284871841 -0.079268830038142 81.000000000000000
2.618825241557121 -3.724829333075955 -0.079478258915389 78.000000000000000
2.608096013377987 -3.737227754605440 -0.079548068541138 77.000000000000000
2.595034764613932 -3.746308940175181 -0.079548068541138 75.000000000000000
