# This PCD file was generated using the MATLABÂ® pcwrite function
# from Computer Vision ToolboxÂ®.
# .PCD v.7 - Point Cloud Data file format
VERSION .7
FIELDS x y z intensity
SIZE 8 8 8 8
TYPE F F F F
COUNT 1 1 1 1
WIDTH 724
HEIGHT 1
VIEWPOINT 0 0 0 1 0 0 0
POINTS 724
DATA ascii
nan nan nan nan
nan nan nan nan
nan nan nan nan
nan nan nan nan
nan nan nan nan
nan nan nan nan
nan nan nan nan
nan nan nan nan
nan nan nan nan
nan nan nan nan
nan nan nan nan
nan nan nan nan
nan nan nan nan
nan nan nan nan
nan nan nan nan
nan nan nan nan
nan nan nan nan
nan nan nan nan
nan nan nan nan
nan nan nan nan
nan nan nan nan
nan nan nan nan
nan nan nan nan
nan nan nan nan
nan nan nan nan
nan nan nan nan
nan nan nan nan
nan nan nan nan
nan nan nan nan
nan nan nan nan
nan nan nan nan
nan nan nan nan
nan nan nan nan
nan nan nan nan
nan nan nan nan
nan nan nan nan
nan nan nan nan
nan nan nan nan
nan nan nan nan
nan nan nan nan
nan nan nan nan
nan nan nan nan
nan nan nan nan
nan nan nan nan
nan nan nan nan
nan nan nan nan
nan nan nan nan
nan nan nan nan
nan nan nan nan
nan nan nan nan
nan nan nan nan
nan nan nan nan
nan nan nan nan
nan nan nan nan
nan nan nan nan
nan nan nan nan
nan nan nan nan
nan nan nan nan
nan nan nan nan
nan nan nan nan
nan nan nan nan
nan nan nan nan
nan nan nan nan
nan nan nan nan
nan nan nan nan
nan nan nan nan
nan nan nan nan
nan nan nan nan
nan nan nan nan
nan nan nan nan
nan nan nan nan
nan nan nan nan
nan nan nan nan
nan nan nan nan
nan nan nan nan
nan nan nan nan
nan nan nan nan
nan nan nan nan
nan nan nan nan
nan nan nan nan
nan nan nan nan
nan nan nan nan
nan nan nan nan
1.268773830731394 3.588877603324850 0.602898428265050 0.000000000000000
1.271984794055021 3.558385388382810 0.598518263243923 0.000000000000000
1.266329727081916 3.505842572514088 0.590383671061831 0.000000000000000
1.276459232992586 3.493756013650649 0.589132195341509 0.000000000000000
1.287962582300563 3.487426011751082 0.588819326411429 0.000000000000000
1.296674011159248 3.473655724907269 0.587254981761027 0.000000000000000
1.307580405690370 3.469564968270729 0.587254981761027 0.000000000000000
1.315364390317725 3.451827861343773 0.585064899250463 0.000000000000000
4.764398840587604 12.385831085109700 2.101853472280542 2.000000000000000
4.805457542110730 12.363601196210308 2.100914865490301 2.000000000000000
4.849317227056130 12.354952978674497 2.102166341210622 5.000000000000000
4.888773786307556 12.328769043110482 2.100601996560220 6.000000000000000
4.933928146817340 12.310767981490468 2.100601996560220 6.000000000000000
4.973083529523738 12.277954414528834 2.098099045119576 7.000000000000000
5.014519004430510 12.263223988543130 2.098411914049657 7.000000000000000
5.059432285699630 12.244762487912727 2.098411914049657 7.000000000000000
5.105332369954152 12.240679582618997 2.100601996560220 8.000000000000000
5.147861177547436 12.216424310998681 2.099663389769979 9.000000000000000
nan nan nan nan
5.281367369981806 12.292715487844859 2.119061263434967 56.000000000000000
5.320745414456600 12.277875448203609 2.119374132365048 43.000000000000000
5.358820054964855 12.248369296255087 2.117496918784565 59.000000000000000
5.397551693786946 12.220554040411411 2.115932574134163 63.000000000000000
5.438567698602113 12.198030266241110 2.115306836274002 57.000000000000000
5.484861204850938 12.181617417454838 2.115932574134163 57.000000000000000
5.524080399045742 12.155203971834036 2.114681098413841 65.000000000000000
5.562239775510281 12.137789606503427 2.114681098413841 63.000000000000000
5.603371579182141 12.110150377907592 2.113429622693519 60.000000000000000
5.638923614733664 12.076198286538371 2.110926671252875 65.000000000000000
5.681885069356267 12.058228131139103 2.111239540182956 69.000000000000000
5.726080010334315 12.048240679015459 2.112803884833358 73.000000000000000
5.771055023731601 12.028953632715798 2.113116753763439 63.000000000000000
5.768393934555474 11.927183022606725 2.098411914049657 18.000000000000000
5.812591203833776 11.912300822585175 2.099350520839898 19.000000000000000
5.854137481263964 11.891938519060282 2.099350520839898 19.000000000000000
5.899126950933255 11.878508175222180 2.100601996560220 19.000000000000000
5.940554742805718 11.857844011445579 2.100601996560220 18.000000000000000
5.980410938596012 11.828939614190716 2.099350520839898 17.000000000000000
6.018707124174672 11.807282900365943 2.099037651909818 19.000000000000000
6.065556768144122 11.792170397038014 2.100289127630140 20.000000000000000
6.106446411868415 11.775498670839433 2.100914865490301 19.000000000000000
6.151396346616916 11.756538864789139 2.101540603350462 20.000000000000000
6.185740640670747 11.727339358918986 2.099976258700059 19.000000000000000
6.227753947770947 11.702844885568767 2.099663389769979 19.000000000000000
6.269156054912036 11.691926631965424 2.101227734420381 19.000000000000000
6.310869838284152 11.671709599570439 2.101540603350462 11.000000000000000
6.361173598960150 11.662374164956054 2.104043554791105 17.000000000000000
6.393276603658236 11.624520647201710 2.101227734420381 19.000000000000000
6.429982870497028 11.595222981815008 2.099976258700059 17.000000000000000
6.477166631100866 11.584776782779832 2.102166341210622 20.000000000000000
6.515547521645243 11.563234027168338 2.102166341210622 20.000000000000000
6.562765234355966 11.547862732129067 2.103730685861025 19.000000000000000
6.595178735638525 11.511172114649492 2.101227734420381 19.000000000000000
6.633344070978358 11.484659406706998 2.100601996560220 18.000000000000000
6.673379409368470 11.466013835100652 2.101227734420381 17.000000000000000
6.719359245712084 11.448292121447183 2.102479210140703 17.000000000000000
6.763319496406830 11.436148714994339 2.104356423721186 17.000000000000000
6.798140512971515 11.403986804538690 2.102792079070783 17.000000000000000
6.833836862239166 11.373414475555288 2.101540603350462 16.000000000000000
6.877589047399590 11.356249308961406 2.102792079070783 7.000000000000000
6.924392186437387 11.343975447250809 2.104982161581347 14.000000000000000
6.965923425126375 11.318520085890203 2.104982161581347 16.000000000000000
7.000295880723853 11.290321443690731 2.104043554791105 19.000000000000000
7.035347462699043 11.254538051513945 2.102166341210622 20.000000000000000
7.072630173079015 11.231146117326293 2.102166341210622 20.000000000000000
7.117981879264264 11.211818918172154 2.103417816930944 21.000000000000000
7.155471412611228 11.197308249390758 2.104669292651266 19.000000000000000
7.186835445486278 11.156061323807982 2.101853472280542 19.000000000000000
7.224866051226657 11.133824644555602 2.102166341210622 20.000000000000000
7.263686335622627 11.108537324579249 2.102166341210622 20.000000000000000
7.308939100851257 11.093011761446469 2.104043554791105 20.000000000000000
7.347616409497251 11.067431220406514 2.104043554791105 21.000000000000000
7.381539578972960 11.030576327551380 2.102166341210622 17.000000000000000
7.426624489651096 11.014569869461841 2.104043554791105 10.000000000000000
7.460889773433875 10.986613367006564 2.103417816930944 17.000000000000000
7.503339087379782 10.962454253466273 2.104043554791105 20.000000000000000
7.539650639804320 10.937512009101537 2.104043554791105 21.000000000000000
7.575530131461707 10.907882137002272 2.103417816930944 21.000000000000000
7.605999408750399 10.874607164176131 2.101853472280542 21.000000000000000
7.644667641023926 10.845042173765444 2.101540603350462 21.000000000000000
7.685162884978065 10.826075046089086 2.102792079070783 19.000000000000000
7.725204260495213 10.802396429544885 2.103417816930944 21.000000000000000
7.758675036252782 10.773513408077472 2.102792079070783 19.000000000000000
7.786954497138170 10.733573554034008 2.100289127630140 20.000000000000000
7.835569378270809 10.717718133562853 2.102792079070783 19.000000000000000
7.874799148959385 10.688927347294758 2.102792079070783 21.000000000000000
7.915400456510061 10.673655361761085 2.104669292651266 19.000000000000000
8.010044230475943 10.718943451333297 2.119374132365048 45.000000000000000
8.051484034427828 10.700214428695771 2.120938477015450 69.000000000000000
8.097809122421388 10.680076823721290 2.122815690595933 102.000000000000000
8.129584908279298 10.648454482238149 2.121877083805692 64.000000000000000
8.170967733939108 10.621717943108191 2.122502821665853 56.000000000000000
8.209774590166438 10.599248731800470 2.123441428456094 73.000000000000000
8.243077627092648 10.565854296068309 2.122502821665853 62.000000000000000
8.275644169134461 10.527805923485966 2.120938477015450 42.000000000000000
8.324604552670827 10.514341715705712 2.124067166316255 56.000000000000000
8.362487326829136 10.486763808462021 2.124380035246335 54.000000000000000
8.373065598015629 10.425166578735672 2.117809787714645 32.000000000000000
8.392685784874288 10.378910889341105 2.114055360553680 37.000000000000000
8.441899271109898 10.361863592028506 2.116871180924404 39.000000000000000
8.465487169575205 10.317061774597576 2.113742491623599 34.000000000000000
8.462439844829758 10.240244752552536 2.104043554791105 21.000000000000000
8.484980609263728 10.198459200708760 2.101227734420381 24.000000000000000
8.514689107907584 10.158208345290483 2.099350520839898 22.000000000000000
8.549602092470570 10.131426440046955 2.099663389769979 20.000000000000000
8.592590665871752 10.110552346001828 2.101540603350462 20.000000000000000
8.630399684343605 10.083498498158415 2.102166341210622 19.000000000000000
8.659096545507509 10.045830093507812 2.100601996560220 19.000000000000000
8.687635669401370 10.008084302782922 2.099037651909818 21.000000000000000
8.728159923099318 9.980636255755392 2.099976258700059 19.000000000000000
8.760776939822167 9.954649616688616 2.100289127630140 20.000000000000000
8.803756073998231 9.929863391336331 2.101853472280542 21.000000000000000
8.829647724291808 9.896260723978314 2.100601996560220 19.000000000000000
8.859257508884562 9.856486256630070 2.099037651909818 19.000000000000000
8.899846292121373 9.835842246832518 2.100914865490301 20.000000000000000
8.939828860739771 9.807536281949023 2.101853472280542 14.000000000000000
8.978980476729488 9.785114158042724 2.103417816930944 21.000000000000000
9.002357124512610 9.742105672322536 2.100914865490301 22.000000000000000
9.032619490062400 9.703261451563828 2.099663389769979 19.000000000000000
9.069137126070061 9.674554944228511 2.100289127630140 21.000000000000000
9.110988394474898 9.651457462457413 2.102166341210622 19.000000000000000
9.144622760866028 9.619595377942472 2.102166341210622 20.000000000000000
9.163874429772614 9.579399933451954 2.099663389769979 20.000000000000000
9.198923133723525 9.545748311657176 2.099663389769979 21.000000000000000
9.241012972648367 9.516025218929723 2.100914865490301 19.000000000000000
9.279698252135793 9.489359357890768 2.102166341210622 20.000000000000000
9.309464111305866 9.460159545916191 2.102166341210622 20.000000000000000
9.335730633871709 9.417557810395857 2.100289127630140 21.000000000000000
9.362480456312678 9.385385306678826 2.099663389769979 21.000000000000000
9.400784396950277 9.358221489685851 2.100914865490301 16.000000000000000
9.446036829581056 9.337848221917350 2.103730685861025 21.000000000000000
9.477164791137383 9.303434688814846 2.103417816930944 21.000000000000000
9.502711574243706 9.260364778409333 2.101540603350462 21.000000000000000
9.530909603810406 9.219979593488979 2.100289127630140 20.000000000000000
9.558223841439677 9.191660273165713 2.100289127630140 21.000000000000000
9.597564147038069 9.162021913090955 2.101540603350462 22.000000000000000
9.633787898319040 9.132541371443535 2.102479210140703 21.000000000000000
9.662879915113836 9.093109195350019 2.101540603350462 22.000000000000000
9.684184945862464 9.055961442454741 2.099976258700059 21.000000000000000
9.724550417186347 9.027125914490739 2.101540603350462 22.000000000000000
9.758906590503594 8.995803623451696 2.102166341210622 21.000000000000000
9.796076746655270 8.967019006395457 2.103417816930944 21.000000000000000
9.821566826950423 8.924412196038977 2.101853472280542 21.000000000000000
9.851192396682100 8.888750837773674 2.101540603350462 20.000000000000000
9.883556363901747 8.858671134851910 2.102166341210622 20.000000000000000
9.738824721932552 8.667833451048143 2.064934938531048 2.000000000000000
9.649111270477920 8.533810696671271 2.040218293054691 2.000000000000000
9.580863967133890 8.411070951306014 2.019256074739300 2.000000000000000
9.563971689654363 8.334369741442604 2.009244268976725 14.000000000000000
9.504873235657376 8.224672385541561 1.990785002101978 20.000000000000000
9.445288794597609 8.121362328543849 1.972951473087392 21.000000000000000
9.383336941075825 8.008463877304409 1.953866468352484 19.000000000000000
9.254644010569995 7.845732357504621 1.921640968554196 12.000000000000000
9.265350815433228 7.799386468767024 1.918199410323311 23.000000000000000
10.164024543111720 8.495429917543367 2.098099045119576 7.000000000000000
10.214898242866555 8.477560678568327 2.102479210140703 9.000000000000000
9.015706620458189 7.429332586809751 1.850306852495851 17.000000000000000
8.955719363427653 7.324952436859681 1.832473323481264 25.000000000000000
8.897167664419610 7.227953971913175 1.815578401256919 28.000000000000000
8.849787378170463 7.135779183340215 1.800560692613057 28.000000000000000
8.799392556262880 7.047121603405451 1.785542983969195 28.000000000000000
8.747843691519055 6.953364824028065 1.769899537465172 28.000000000000000
8.684382534765673 6.858512056727112 1.752691746310747 31.000000000000000
8.639500145651425 6.771798823490171 1.738612644457126 28.000000000000000
8.587480964830871 6.687578975938337 1.723907804743344 34.000000000000000
8.535760478404876 6.599565417113046 1.708890096099482 31.000000000000000
8.500339237641423 6.522539704018765 1.697001076756425 46.000000000000000
8.468057771354065 6.450931307861573 1.686050664203608 28.000000000000000
8.449560387495938 6.390352330921309 1.677916072021516 28.000000000000000
8.411787622076366 6.315748796526535 1.666027052678459 28.000000000000000
8.369341035166094 6.240587129893880 1.653512295475240 28.000000000000000
8.323877150980056 6.159345085044269 1.640058931481780 29.000000000000000
8.276338864560538 6.077351648340004 1.626292698558240 29.000000000000000
8.230458283942120 5.999553350429365 1.613152203494861 29.000000000000000
8.182068512442660 5.925006446458648 1.600011708431481 34.000000000000000
8.149187979980216 5.855785603246115 1.589374164808746 31.000000000000000
8.113890182149387 5.789718541772647 1.578736621186010 32.000000000000000
8.030883924371523 5.688287364997048 1.558713009660860 7.000000000000000
7.963429223130708 5.598868456522393 1.541818087436515 21.000000000000000
7.999123521378306 5.582341654429733 1.544946776737320 24.000000000000000
nan nan nan nan
nan nan nan nan
9.065508496904595 6.186389381776196 1.738299775527046 41.000000000000000
9.097936242664582 6.159765918522466 1.740176989107528 39.000000000000000
7.735395311874795 5.201890263103476 1.476428481049699 27.000000000000000
7.711685217813899 5.144999529374582 1.468293888867607 43.000000000000000
7.680945369751655 5.087763477705323 1.459220689895274 42.000000000000000
7.633507561235733 5.016184631457508 1.446705932692055 44.000000000000000
7.588885822972464 4.950908045389569 1.435129782279078 42.000000000000000
7.569641284098811 4.900769561165744 1.428246665817308 42.000000000000000
7.544366042425096 4.841537693359599 1.419799204705136 44.000000000000000
7.511234169556944 4.783341095261192 1.410413136802722 45.000000000000000
7.469460494760932 4.723821779655051 1.399775593179986 42.000000000000000
7.432361750479318 4.664119576639862 1.389763787417411 43.000000000000000
7.407547477234647 4.614380529653775 1.382254933095480 43.000000000000000
7.372315044015811 4.555012286361112 1.372555996262986 42.000000000000000
7.355274770252124 4.507318176196259 1.366298617661377 42.000000000000000
7.311887704288931 4.445697407918961 1.355348205108560 45.000000000000000
7.265864105660802 4.388239894700514 1.344397792555744 42.000000000000000
7.244616767163783 4.339249058093192 1.337514676093974 47.000000000000000
7.225006325488003 4.295013108772974 1.331257297492365 47.000000000000000
7.245059252769676 4.272777375018405 1.332195904282606 57.000000000000000
7.271864955357798 4.254444042326701 1.334385986793169 30.000000000000000
nan nan nan nan
nan nan nan nan
2.383112291519516 1.359854559928658 0.434574943881761 103.000000000000000
2.382216321026323 1.349440227275615 0.433636337091520 97.000000000000000
2.380256954809103 1.336830640260728 0.432384861371198 97.000000000000000
2.379500379448952 1.326045275852360 0.431446254580957 107.000000000000000
2.391260751165715 1.321136137620383 0.432697730301279 103.000000000000000
2.402557437083313 1.316997284776581 0.433949206021600 86.000000000000000
nan nan nan nan
2.418648324679372 1.303941965018779 0.435200681741922 8.000000000000000
2.414474969150219 1.290834672024618 0.433636337091520 8.000000000000000
2.417444449916230 1.281051561612475 0.433323468161440 9.000000000000000
2.428896087623348 1.276280695489108 0.434574943881761 10.000000000000000
2.443847513072357 1.273270924468397 0.436452157462244 12.000000000000000
2.453542281463441 1.267452402426933 0.437390764252486 41.000000000000000
nan nan nan nan
2.450218725016256 1.243604666359481 0.435200681741922 107.000000000000000
2.454329194567853 1.235472610503074 0.435200681741922 94.000000000000000
2.463929420245962 1.229543953279042 0.436139288532164 78.000000000000000
nan nan nan nan
2.465147566447242 1.209264266364872 0.434887812811842 6.000000000000000
2.486907703498467 1.209723777627351 0.438016502112646 7.000000000000000
2.487556540312923 1.199319714710397 0.437390764252486 8.000000000000000
2.502421903023355 1.195739211918514 0.439267977832968 7.000000000000000
2.495868683423616 1.181924208421122 0.437390764252486 7.000000000000000
2.503555671250084 1.174883204760603 0.438016502112646 8.000000000000000
2.516801606910436 1.169862534921146 0.439580846763049 12.000000000000000
2.527843449294743 1.164816878016273 0.440832322483371 58.000000000000000
2.533892824648130 1.156364161192102 0.441145191413451 85.000000000000000
2.525114956361345 1.142256043769652 0.438955108902888 69.000000000000000
nan nan nan nan
2.534833244643472 1.125401290873965 0.439267977832968 6.000000000000000
2.542557745689909 1.117692993950459 0.439893715693129 8.000000000000000
2.556921635101686 1.114435371835284 0.441770929273612 7.000000000000000
2.560796162867954 1.105503260189445 0.441770929273612 7.000000000000000
2.561197929632973 1.094557483797248 0.441145191413451 7.000000000000000
2.574098800045773 1.089460249059615 0.442709536063853 6.000000000000000
2.584984204333722 1.083973838872843 0.443961011784175 6.000000000000000
2.583279181426877 1.072671347375269 0.443022404993934 7.000000000000000
2.605277593811474 1.071159119946007 0.446151094294738 20.000000000000000
2.600037470275680 1.057880794420206 0.444586749644336 37.000000000000000
nan nan nan nan
2.618368709149713 1.044093497962350 0.446463963224819 6.000000000000000
2.623653943957268 1.036130515237875 0.446776832154899 4.000000000000000
2.631113809015692 1.027945068741934 0.447402570015060 4.000000000000000
2.617750503777379 1.013256592386135 0.444586749644336 3.000000000000000
2.636028815268945 1.009765757121694 0.447089701084980 3.000000000000000
2.657832824184786 1.008023848747815 0.450218390385784 3.000000000000000
2.661335291631896 0.998740139612405 0.450218390385784 3.000000000000000
2.670706805885291 0.990574843662557 0.451156997176026 7.000000000000000
2.665046553046580 0.977378799079210 0.449592652525624 29.000000000000000
2.671647960059521 0.970816449421946 0.450218390385784 55.000000000000000
nan nan nan nan
2.693584540106201 0.956494491335809 0.452721341826428 6.000000000000000
2.698936081516053 0.947269777716466 0.453034210756509 5.000000000000000
2.702062501632138 0.938314574733709 0.453034210756509 5.000000000000000
2.720430869598624 0.933534025942406 0.455537162197152 4.000000000000000
2.717577776362268 0.923551396969255 0.454598555406911 3.000000000000000
2.732020191504123 0.917834160151573 0.456475768987394 3.000000000000000
2.740990338597305 0.909681291743535 0.457414375777635 4.000000000000000
2.744149019834596 0.900107907849265 0.457414375777635 20.000000000000000
nan nan nan nan
2.759926445840343 0.883459420542525 0.458978720428037 82.000000000000000
nan nan nan nan
2.771532168387688 0.866421082220786 0.459917327218279 6.000000000000000
2.770615405021768 0.856059293157291 0.459291589358118 5.000000000000000
2.784922915613000 0.849842155514638 0.461168802938601 4.000000000000000
2.785981086332820 0.839545826435303 0.460855934008520 3.000000000000000
2.796613229076497 0.831581137850078 0.462107409728842 3.000000000000000
2.806792717349069 0.825019505897614 0.463358885449164 3.000000000000000
2.819141142977024 0.817969196295304 0.464923230099566 20.000000000000000
2.818321936783629 0.806544046747835 0.464297492239405 92.000000000000000
2.828724228107540 0.798848796549783 0.465548967959727 85.000000000000000
2.833260547083107 0.789994570406652 0.465861836889808 73.000000000000000
2.836136991465762 0.779604845142200 0.465861836889808 16.000000000000000
2.844426015511197 0.771747360256713 0.466800443680049 4.000000000000000
2.852960509896737 0.762847631991409 0.467739050470290 3.000000000000000
2.855474517260375 0.753382679613607 0.467739050470290 3.000000000000000
2.867775876068418 0.745396436782608 0.469303395120693 3.000000000000000
2.875972395586843 0.737354215734388 0.470242001910934 9.000000000000000
2.876740343339510 0.726324725573034 0.469929132980854 44.000000000000000
2.884758308663187 0.718716266854709 0.470867739771095 87.000000000000000
2.904515465665902 0.712879929973456 0.473683560141819 97.000000000000000
2.909151542098579 0.702185652326041 0.473996429071900 84.000000000000000
2.905819389231712 0.690656190838230 0.473057822281658 62.000000000000000
nan nan nan nan
2.924045089270122 0.673456564973486 0.475247904792221 3.000000000000000
2.943483655253187 0.668202847899251 0.478063725162946 3.000000000000000
2.936273202737496 0.655258742220851 0.476499380512543 3.000000000000000
2.957837029753181 0.649240340758338 0.479628069813348 12.000000000000000
nan nan nan nan
2.960255431385999 0.628681731205806 0.479315200883267 88.000000000000000
2.964473554360107 0.618230911671907 0.479628069813348 94.000000000000000
2.978011332410190 0.611297935625757 0.481505283393831 84.000000000000000
2.974317802891392 0.599727668814359 0.480566676603589 71.000000000000000
nan nan nan nan
2.997823010306537 0.582717763483551 0.483695365904394 4.000000000000000
3.019343160908667 0.575424379000077 0.486824055205199 3.000000000000000
3.015606533472555 0.563265981838276 0.485885448414957 3.000000000000000
5.315840468185955 0.975639296259472 0.856009392700143 20.000000000000000
nan nan nan nan
5.299340722298916 0.933463112660715 0.852254965539178 116.000000000000000
5.294939764867307 0.912691594539517 0.851003489818856 116.000000000000000
5.282199227265266 0.893417125339625 0.848500538378212 116.000000000000000
5.265949205990924 0.870827994905425 0.845371849077408 113.000000000000000
5.241360250620402 0.849853934840938 0.840991684056281 113.000000000000000
5.240392857194618 0.830934280636880 0.840365946196120 116.000000000000000
5.235736073113225 0.809599084818546 0.839114470475798 113.000000000000000
5.217044807346829 0.788072497855113 0.835672912244913 110.000000000000000
5.204130023041190 0.767550988335438 0.833169960804270 110.000000000000000
5.189180500371329 0.746847866724433 0.830354140433545 113.000000000000000
5.175979385662003 0.727436463263310 0.827851188992902 113.000000000000000
5.174572878582278 0.708828312949587 0.827225451132741 116.000000000000000
5.161471550559887 0.687770478620982 0.824722499692097 120.000000000000000
5.148169124388410 0.667716767175309 0.822219548251453 120.000000000000000
5.132716844385766 0.648412928691124 0.819403727880729 122.000000000000000
5.113381779872937 0.627844336570611 0.815962169649844 123.000000000000000
5.103879468593630 0.607697337800612 0.814084956069361 123.000000000000000
5.094195683623383 0.588517561330177 0.812207742488879 119.000000000000000
5.092292748948183 0.570292213494611 0.811582004628718 120.000000000000000
5.076577677750366 0.550596350303435 0.808766184257994 122.000000000000000
5.064623720770509 0.532313403079989 0.806576101747430 120.000000000000000
5.062520457577871 0.514232075580208 0.805950363887269 116.000000000000000
5.056420823899555 0.495786396563915 0.804698888166948 120.000000000000000
5.034521317265671 0.475902381146986 0.800944461005982 116.000000000000000
5.020493546499221 0.456017220467276 0.798441509565338 116.000000000000000
5.010247418319876 0.437458717573637 0.796564295984856 120.000000000000000
4.999786489326818 0.420722595310308 0.794687082404373 120.000000000000000
4.993348680548202 0.402632453378331 0.793435606684051 120.000000000000000
4.979034424850748 0.383115819329875 0.790932655243407 124.000000000000000
4.960640697024870 0.364286681427861 0.787803965942603 121.000000000000000
4.949998195808722 0.347005765675331 0.785926752362120 126.000000000000000
4.943295271397770 0.329199893687054 0.784675276641798 126.000000000000000
4.936582731260736 0.310583459907383 0.783423800921476 124.000000000000000
4.917917797720103 0.292178153955338 0.780295111620672 121.000000000000000
4.903081436392349 0.274983242520765 0.777792160180028 123.000000000000000
4.896165689325360 0.256597170779363 0.776540684459706 121.000000000000000
4.900977588191258 0.239697793201246 0.777166422319867 121.000000000000000
4.889944372187133 0.222051074592425 0.775289208739384 120.000000000000000
4.876802529559581 0.206103926953155 0.773099126228821 122.000000000000000
4.859760015089067 0.187542593716298 0.770283305858097 123.000000000000000
4.852458611530109 0.171147502529958 0.769031830137775 120.000000000000000
4.843154564099157 0.153894531953533 0.767467485487373 110.000000000000000
4.841687662971695 0.136931985023699 0.767154616557292 116.000000000000000
4.828312757273769 0.119687842315138 0.764964534046729 122.000000000000000
4.808951841200750 0.102412570869871 0.761835844745924 126.000000000000000
4.803369691914022 0.084681733999761 0.760897237955683 126.000000000000000
4.791761006825082 0.069419421404579 0.759020024375200 126.000000000000000
4.788032734333843 0.051813522645413 0.758394286515039 126.000000000000000
4.772381838078256 0.034984012638013 0.755891335074396 130.000000000000000
4.756675098424949 0.017434202870449 0.753388383633752 126.000000000000000
4.748805252267647 0.001657645811087 0.752136907913430 125.000000000000000
4.744828699397067 -0.015734505492906 0.751511170053269 126.000000000000000
4.736854511329141 -0.030589696961572 0.750259694332947 124.000000000000000
4.724867201239765 -0.047006309698757 0.748382480752464 125.000000000000000
4.708861629391023 -0.064108369207893 0.745879529311821 121.000000000000000
4.704658985953862 -0.080477401862297 0.745253791451660 125.000000000000000
4.706324362773319 -0.096939915893955 0.745566660381740 118.000000000000000
4.700032895567245 -0.113224742836150 0.744628053591499 124.000000000000000
4.679885235210110 -0.128268772578996 0.741499364290694 123.000000000000000
4.667537131829107 -0.145052394586631 0.739622150710212 124.000000000000000
4.667002368249178 -0.161344255972634 0.739622150710212 124.000000000000000
nan nan nan nan
4.663855956487131 -0.192211870115406 0.739309281780131 13.000000000000000
4.635492681103319 -0.208064405359013 0.734929116759005 15.000000000000000
nan nan nan nan
4.649750985954586 -0.240428187626065 0.737432068199648 107.000000000000000
4.648883407086993 -0.256657382714830 0.737432068199648 107.000000000000000
4.651903145013368 -0.273115002020970 0.738057806059809 107.000000000000000
4.631205806371033 -0.288124924945873 0.734929116759005 110.000000000000000
4.616320954605278 -0.304188020409870 0.732739034248441 116.000000000000000
4.611345527715614 -0.319221780692811 0.732113296388280 116.000000000000000
4.606204253399198 -0.335833779846093 0.731487558528120 113.000000000000000
4.605187540763183 -0.349499164688740 0.731487558528120 116.000000000000000
4.584184117601631 -0.364808625921679 0.728358869227315 120.000000000000000
4.567067726665902 -0.380296682421518 0.725855917786671 120.000000000000000
4.565643193535117 -0.397033268052596 0.725855917786671 120.000000000000000
4.564445077167038 -0.410578036601640 0.725855917786671 116.000000000000000
4.555116870262831 -0.425773062539979 0.724604442066349 116.000000000000000
4.537873695337994 -0.440145160595491 0.722101490625706 120.000000000000000
4.524516823003599 -0.454797217572963 0.720224277045223 116.000000000000000
4.522737177814335 -0.472166719677184 0.720224277045223 120.000000000000000
4.513205569954524 -0.487103268605837 0.718972801324901 116.000000000000000
4.507638947407967 -0.501629959454568 0.718347063464740 116.000000000000000
4.493995444204915 -0.516793867680634 0.716469849884257 116.000000000000000
4.478525194561247 -0.530068387664012 0.714279767373694 110.000000000000000
4.472725902166037 -0.545220075063379 0.713654029513533 107.000000000000000
4.471088516331471 -0.558488500587027 0.713654029513533 110.000000000000000
4.474889222591989 -0.575628187001379 0.714592636303775 113.000000000000000
4.455330283834498 -0.588137591255155 0.711776815933050 107.000000000000000
4.437590376350192 -0.601563161166110 0.709273864492407 103.000000000000000
4.429593890519344 -0.616233014183523 0.708335257702165 60.000000000000000
4.437193711132384 -0.633086506306119 0.709899602352568 107.000000000000000
4.430934456132955 -0.648773019323216 0.709273864492407 107.000000000000000
4.408992076839727 -0.662075417092446 0.706145175191602 107.000000000000000
4.398962349278939 -0.675493243542835 0.704893699471280 107.000000000000000
4.400359753892712 -0.692225656754213 0.705519437331441 110.000000000000000
4.390361731409133 -0.704793945509126 0.704267961611119 110.000000000000000
4.379952065833479 -0.719599695363189 0.703016485890797 110.000000000000000
4.365980394383854 -0.731397919521222 0.701139272310315 110.000000000000000
4.353535264807982 -0.745727576708096 0.699574927659912 113.000000000000000
4.347013979917600 -0.760239099546468 0.698949189799752 113.000000000000000
4.346278410316137 -0.775755472581887 0.699262058729832 110.000000000000000
4.337713778906969 -0.789860448909682 0.698323451939591 113.000000000000000
4.331045878497035 -0.804275759999139 0.697697714079430 113.000000000000000
4.312684827861434 -0.816449519280522 0.695194762638786 116.000000000000000
4.313687828512808 -0.832247048192931 0.695820500498947 113.000000000000000
4.303150854763362 -0.845024609681526 0.694569024778625 116.000000000000000
4.300024781308881 -0.860790770133824 0.694569024778625 116.000000000000000
4.285380366637867 -0.873428398859200 0.692691811198142 113.000000000000000
4.270700260805412 -0.885974307796194 0.690814597617660 113.000000000000000
4.267738782366431 -0.900131588826795 0.690814597617660 116.000000000000000
4.268273660688199 -0.916597087028801 0.691440335477820 113.000000000000000
4.265210646796099 -0.930746152788998 0.691440335477820 113.000000000000000
4.242650974142602 -0.941349982389078 0.688311646177016 113.000000000000000
4.227777367625983 -0.953546170636427 0.686434432596533 113.000000000000000
4.226348556803310 -0.968739397491651 0.686747301526613 110.000000000000000
4.223284321058068 -0.982012060695291 0.686747301526613 107.000000000000000
4.188898382313846 -0.990213617368270 0.681741398645326 38.000000000000000
4.170224665069765 -1.000412602221078 0.679238447204683 38.000000000000000
4.164610783515195 -1.015222675570960 0.678925578274602 38.000000000000000
4.170809352837094 -1.031398471534716 0.680489922925004 45.000000000000000
4.161253486255006 -1.045234630056846 0.679551316134763 38.000000000000000
4.157764483331143 -1.059028096836730 0.679551316134763 37.000000000000000
4.165329762054516 -1.077227521108234 0.681428529715246 37.000000000000000
7.275681501916326 -1.910096615591010 1.191404885746398 30.000000000000000
7.278514034980622 -1.938023183018350 1.192969230396801 50.000000000000000
7.254199005153110 -1.960049911160162 1.190153410026076 43.000000000000000
7.258744052089430 -1.988491332302078 1.192030623606559 46.000000000000000
7.230821863113815 -2.008002793221327 1.188589065375674 44.000000000000000
7.221867080558320 -2.032695636761404 1.188276196445594 46.000000000000000
7.203688469392271 -2.053384009239740 1.186398982865111 43.000000000000000
7.194216345586263 -2.079224591820214 1.186086113935030 43.000000000000000
7.186914667694350 -2.104324425940616 1.186086113935030 43.000000000000000
7.168162414366995 -2.126028429155503 1.184208900354548 43.000000000000000
7.150469862465799 -2.143883515589957 1.182331686774065 43.000000000000000
7.138783973764809 -2.168928405047115 1.181705948913904 43.000000000000000
7.135328601688312 -2.193750562023570 1.182331686774065 43.000000000000000
7.118196938739979 -2.215708650767743 1.180767342123663 42.000000000000000
7.097230928620174 -2.236386547303509 1.178577259613099 43.000000000000000
7.078089423589727 -2.257545373482909 1.176700046032617 43.000000000000000
7.067489263756508 -2.284099103855877 1.176387177102536 42.000000000000000
7.062824975631263 -2.311216121787460 1.177012914962697 42.000000000000000
7.054060799671927 -2.331541815237012 1.176700046032617 43.000000000000000
7.037974705225959 -2.354873395142588 1.175448570312295 43.000000000000000
7.014328497817526 -2.375583780857821 1.172945618871651 43.000000000000000
7.005574434111100 -2.401276623652247 1.172945618871651 43.000000000000000
6.997572994846119 -2.424494742615481 1.172945618871651 43.000000000000000
6.999824582303387 -2.454047091913755 1.174822832452134 43.000000000000000
6.970166232497014 -2.466896325646293 1.171068405291168 43.000000000000000
6.954073192102052 -2.488549455039426 1.169816929570846 44.000000000000000
6.934741569252155 -2.513079637718008 1.168252584920444 8.000000000000000
3.937799436592894 -1.442588786742226 0.664220738560820 26.000000000000000
3.925330093207937 -1.453581582122208 0.662969262840499 50.000000000000000
3.916532154532837 -1.465889810806732 0.662343524980338 52.000000000000000
3.906106357031788 -1.476773734107498 0.661404918190096 120.000000000000000
3.893286835605467 -1.488259066189915 0.660153442469774 120.000000000000000
3.897806800249378 -1.504038469633835 0.661717787120177 122.000000000000000
3.887011656088779 -1.515482517310070 0.660779180329935 123.000000000000000
3.866728636433403 -1.523924558062231 0.658276228889291 121.000000000000000
3.857446938141954 -1.536624531584865 0.657650491029131 119.000000000000000
3.859660887925110 -1.552356282698935 0.658901966749452 120.000000000000000
3.859708978836479 -1.568050068141917 0.659840573539694 122.000000000000000
3.848729427427158 -1.579263750191816 0.658901966749452 121.000000000000000
3.830419173566841 -1.587394864509438 0.656711884238889 118.000000000000000
3.832143703826140 -1.603806363055360 0.657963359959211 122.000000000000000
3.826239719883164 -1.617841099409825 0.657963359959211 122.000000000000000
3.819036868855630 -1.629745141416450 0.657650491029131 120.000000000000000
3.813037902573456 -1.643731664593514 0.657650491029131 120.000000000000000
3.807855159173468 -1.655702545267458 0.657650491029131 120.000000000000000
3.790909289785569 -1.664882027412674 0.655773277448648 116.000000000000000
3.771211125100166 -1.670383348539533 0.653270326008004 47.000000000000000
3.784898638401796 -1.693066979810205 0.656711884238889 122.000000000000000
3.766066255152594 -1.701235484247619 0.654521801728326 126.000000000000000
3.749320651288504 -1.709454209794131 0.652644588147843 126.000000000000000
3.735852574438095 -1.719880389778964 0.651393112427521 124.000000000000000
3.733409237760994 -1.734575130189063 0.652018850287682 124.000000000000000
3.734485882936507 -1.750950904881498 0.653270326008004 124.000000000000000
3.728351171916420 -1.763976025921798 0.653270326008004 125.000000000000000
3.715968568923455 -1.771630044236804 0.652018850287682 124.000000000000000
3.702330394622189 -1.781811290023557 0.650767374567360 123.000000000000000
3.696088156657269 -1.794723979451040 0.650767374567360 124.000000000000000
3.693348768489022 -1.809352891887763 0.651393112427521 126.000000000000000
3.690870533033922 -1.823340376137002 0.652018850287682 128.000000000000000
3.680627200675665 -1.835093028358073 0.651393112427521 128.000000000000000
3.663932176207357 -1.841964740514145 0.649515898847039 125.000000000000000
3.662765573458315 -1.857423293163070 0.650454505637280 129.000000000000000
3.658018304036231 -1.871096980793514 0.650767374567360 126.000000000000000
3.658486718256756 -1.887477245216069 0.652018850287682 125.000000000000000
3.644866545644859 -1.896588961435139 0.650767374567360 126.000000000000000
3.630894774050789 -1.906262373577046 0.649515898847039 125.000000000000000
3.627710095979813 -1.920773623242941 0.650141636707199 125.000000000000000
3.627615223791510 -1.937779863967539 0.651393112427521 126.000000000000000
3.624988492984653 -1.951039170441841 0.652018850287682 125.000000000000000
3.607397259614733 -1.958656902967898 0.650141636707199 125.000000000000000
3.593950846099623 -1.966815414520189 0.648890160986878 125.000000000000000
3.597094200637828 -1.985702680648947 0.650767374567360 124.000000000000000
3.587037201368947 -1.995699368195249 0.650141636707199 124.000000000000000
3.586940393096637 -2.012073962222495 0.651393112427521 125.000000000000000
3.573017291036778 -2.020692774810631 0.650141636707199 125.000000000000000
3.555645717515828 -2.027282113870573 0.648264423126717 121.000000000000000
3.561891055521865 -2.048178198495445 0.650767374567360 123.000000000000000
3.554719879135434 -2.060599040346781 0.650767374567360 126.000000000000000
3.547867141417549 -2.072375586385917 0.650767374567360 124.000000000000000
3.536843590546329 -2.083360090870284 0.650141636707199 124.000000000000000
3.526152694782055 -2.093676257262850 0.649515898847039 128.000000000000000
3.518822918262720 -2.105972071764952 0.649515898847039 123.000000000000000
3.514833166060179 -2.120282921447763 0.650141636707199 125.000000000000000
3.510413730031130 -2.135204268496960 0.650767374567360 123.000000000000000
3.500319544611504 -2.144158328536025 0.650141636707199 121.000000000000000
3.486090295898998 -2.152212816571181 0.648890160986878 123.000000000000000
3.482288939600144 -2.165847833593909 0.649515898847039 125.000000000000000
3.481402509324381 -2.182186608030718 0.650767374567360 123.000000000000000
3.473381011671740 -2.194931928775219 0.650767374567360 121.000000000000000
3.466978869757357 -2.208709132770386 0.651080243497441 53.000000000000000
3.474986966653089 -2.229189430992550 0.653896063868165 112.000000000000000
3.463475732643214 -2.239765552585573 0.653270326008004 113.000000000000000
3.467615664373934 -2.258785792644625 0.655460408518567 110.000000000000000
3.452708614750061 -2.267143112791449 0.654208932798246 110.000000000000000
3.441876274922181 -2.276400824859790 0.653583194938085 110.000000000000000
3.435153344433116 -2.290096381790011 0.653896063868165 116.000000000000000
3.427540223523218 -2.301475169057474 0.653896063868165 113.000000000000000
3.422757929333352 -2.315639300117351 0.654521801728326 116.000000000000000
3.415879746585268 -2.329281672742106 0.654834670658406 110.000000000000000
3.406100070600029 -2.340072545909803 0.654521801728326 113.000000000000000
3.393842054528833 -2.350884098923049 0.653896063868165 116.000000000000000
3.388855084391134 -2.364977468826853 0.654521801728326 116.000000000000000
3.388289349543165 -2.379563130567587 0.655773277448648 116.000000000000000
3.385994569660602 -2.396530669103186 0.657024753168970 113.000000000000000
3.374391717862802 -2.406041742597280 0.656399015308809 113.000000000000000
3.359555018802779 -2.413196174580138 0.655147539588487 120.000000000000000
3.357936266314693 -2.428954582545785 0.656399015308809 120.000000000000000
3.355396298069499 -2.445900144026866 0.657650491029131 113.000000000000000
3.347266951796618 -2.457013590735574 0.657650491029131 116.000000000000000
3.338669981133156 -2.468682763890385 0.657650491029131 116.000000000000000
3.326863888031468 -2.477961893216963 0.657024753168970 113.000000000000000
3.315033733764513 -2.487188709508175 0.656399015308809 120.000000000000000
3.318939184913779 -2.508273287554121 0.658901966749452 120.000000000000000
3.306580473736364 -2.518027398021057 0.658276228889291 120.000000000000000
3.296644621919807 -2.527776583030708 0.657963359959211 122.000000000000000
3.288920889999681 -2.541050134452880 0.658276228889291 116.000000000000000
3.283594704047980 -2.554368418564902 0.658901966749452 120.000000000000000
3.277319832109628 -2.568823451487722 0.659527704609613 120.000000000000000
3.281188536415739 -2.589467358153721 0.662030656050257 120.000000000000000
3.262398661969386 -2.594099536019323 0.660153442469774 120.000000000000000
3.250694230011890 -2.602434673497066 0.659527704609613 120.000000000000000
3.247741258504956 -2.618725566501221 0.660779180329935 120.000000000000000
3.242261109326190 -2.634914129371142 0.661717787120177 122.000000000000000
3.231515163722034 -2.644964514096268 0.661404918190096 123.000000000000000
3.215104034924979 -2.649384921471384 0.659840573539694 118.000000000000000
3.216476887188338 -2.669422380334908 0.662030656050257 116.000000000000000
3.210638843019072 -2.682607075832537 0.662656393910418 120.000000000000000
3.203807491227932 -2.696900883018445 0.663282131770579 120.000000000000000
3.203414712873952 -2.715732170637385 0.665159345351062 120.000000000000000
3.187906273834935 -2.721767060180984 0.663907869630740 120.000000000000000
3.175866939931969 -2.729748338862217 0.663282131770579 120.000000000000000
3.168827222490235 -2.743956336140791 0.663907869630740 120.000000000000000
3.169126713731625 -2.761684648051987 0.665785083211223 116.000000000000000
3.165406176262772 -2.777942038330942 0.667036558931544 120.000000000000000
3.149769444960161 -2.783741846250975 0.665785083211223 120.000000000000000
3.142984342078233 -2.797346250110991 0.666410821071383 116.000000000000000
3.136142605720871 -2.810937172124464 0.667036558931544 116.000000000000000
3.134615804904927 -2.830355829323226 0.668913772512027 116.000000000000000
3.128136263397775 -2.843392403743525 0.669539510372188 113.000000000000000
3.111866233320343 -2.849502351053919 0.668288034651866 116.000000000000000
3.102399832909017 -2.859806003823905 0.668288034651866 120.000000000000000
3.106372456242777 -2.884599408218215 0.671416723952671 113.000000000000000
3.091521755648626 -2.888949250923752 0.670165248232349 120.000000000000000
3.089542469065015 -2.908384820027123 0.672042461812832 116.000000000000000
3.077013256974419 -2.915896602968002 0.671416723952671 120.000000000000000
3.063957962411825 -2.923892107713658 0.670790986092510 120.000000000000000
3.067461550672804 -2.948792279266508 0.673919675393315 116.000000000000000
3.055730367170283 -2.958107806257198 0.673606806463234 110.000000000000000
3.048214997249923 -2.971514059653068 0.674232544323395 110.000000000000000
3.040643232854877 -2.984903855982986 0.674858282183556 107.000000000000000
3.026513017292382 -2.990805113556805 0.673919675393315 113.000000000000000
3.019730743741139 -3.006058637863348 0.674858282183556 110.000000000000000
3.014799622424631 -3.022175182198323 0.676109757903878 107.000000000000000
3.009792713102529 -3.038293860596441 0.677361233624200 107.000000000000000
2.998315275616297 -3.046850015978960 0.677048364694119 113.000000000000000
2.987127872950767 -3.057818925722327 0.677048364694119 113.000000000000000
2.982474075434000 -3.073378225317843 0.678299840414441 113.000000000000000
2.973098536290616 -3.085192681863272 0.678612709344522 110.000000000000000
2.972955196476103 -3.104504623663502 0.680802791855085 120.000000000000000
2.959377822061964 -3.112000334432273 0.680177053994924 120.000000000000000
2.950663900338947 -3.125698978762812 0.680802791855085 120.000000000000000
2.941889281238011 -3.139375513669401 0.681428529715246 113.000000000000000
2.939538215809311 -3.157789153660467 0.683305743295728 116.000000000000000
2.933307131561222 -3.174345079827506 0.684557219016050 120.000000000000000
2.920092864454758 -3.181144352594568 0.683931481155889 116.000000000000000
2.905752828031304 -3.188905417783217 0.683305743295728 120.000000000000000
2.903115801695586 -3.207310860760423 0.685182956876211 120.000000000000000
2.903223143029452 -3.231154138119213 0.687998777246935 122.000000000000000
2.885728061790758 -3.230914228707606 0.686121563666453 118.000000000000000
2.884918331443760 -3.252790570893440 0.688624515107096 122.000000000000000
2.869060964792233 -3.258894486142177 0.687685908316855 120.000000000000000
2.865468551925994 -3.277812788864299 0.689563121897338 120.000000000000000
2.859189083028504 -3.293762131546385 0.690814597617660 120.000000000000000
2.852833118656926 -3.309707501763373 0.692066073337981 120.000000000000000
2.839399057459052 -3.318640459087433 0.691753204407901 122.000000000000000
2.828495265342752 -3.330530751106825 0.692066073337981 120.000000000000000
2.825766400894588 -3.350954586030920 0.694256155848544 122.000000000000000
2.817856657927484 -3.365341601884324 0.695194762638786 120.000000000000000
2.814177414432794 -3.381279081428494 0.696759107289188 122.000000000000000
2.800507415201128 -3.390047913301366 0.696446238359108 120.000000000000000
2.789250213066075 -3.399316090919804 0.696446238359108 120.000000000000000
2.784853557954079 -3.418220445966246 0.698323451939591 120.000000000000000
2.779158864770641 -3.438105733157724 0.700200665520073 116.000000000000000
2.769613573802971 -3.450866993109335 0.700826403380234 116.000000000000000
2.757550926616046 -3.460513724787711 0.700826403380234 116.000000000000000
2.747299745857417 -3.473696158267306 0.701452141240395 116.000000000000000
2.743696300938862 -3.491629193780700 0.703329354820878 113.000000000000000
2.739384042493331 -3.512565642273525 0.705519437331441 110.000000000000000
2.731943649953239 -3.528354116290506 0.706770913051763 107.000000000000000
2.716585981843366 -3.535210827490455 0.706145175191602 107.000000000000000
2.706084857909159 -3.543255527526683 0.706145175191602 110.000000000000000
2.697852849862229 -3.559447145101166 0.707396650911924 103.000000000000000
2.694350360234343 -3.579421573949606 0.709586733422487 113.000000000000000
2.688934245660216 -3.598298997391778 0.711463947002970 113.000000000000000
2.678081082059894 -3.611303642540244 0.712089684863131 116.000000000000000
2.664287848565011 -3.619039102343194 0.711776815933050 110.000000000000000
2.655666620249268 -3.635160169427986 0.713028291653372 110.000000000000000
2.651079279583723 -3.655601910851364 0.715218374163936 120.000000000000000
2.646509840056650 -3.673529036841933 0.717095587744418 113.000000000000000
2.628432744825373 -3.676776375197463 0.715844112024097 120.000000000000000
2.616580819042460 -3.690064467136844 0.716469849884257 113.000000000000000
2.612779989004681 -3.712098441584184 0.718972801324901 120.000000000000000
2.608547579303500 -3.729546726147932 0.720850014905384 120.000000000000000
2.603870518694291 -3.752065405607040 0.723352966346028 120.000000000000000
2.591413904469672 -3.760679521283308 0.723352966346028 124.000000000000000
2.573810219106576 -3.763180356195898 0.722101490625706 120.000000000000000
2.566655298948974 -3.782395988290105 0.723978704206188 120.000000000000000
2.565574839639479 -3.809354998422285 0.727420262437074 122.000000000000000
2.555555320255340 -3.823214140318658 0.728358869227315 120.000000000000000
2.546983977368301 -3.840786471658062 0.729923213877717 122.000000000000000
2.531645612257527 -3.843819966721482 0.728984607087476 120.000000000000000
2.524023239632287 -3.862995170186736 0.730861820667959 116.000000000000000
2.518443070007461 -3.885481259015605 0.733364772108602 120.000000000000000
