# This PCD file was generated using the MATLABÂ® pcwrite function
# from Computer Vision ToolboxÂ®.
# .PCD v.7 - Point Cloud Data file format
VERSION .7
FIELDS x y z intensity
SIZE 8 8 8 8
TYPE F F F F
COUNT 1 1 1 1
WIDTH 754
HEIGHT 1
VIEWPOINT 0 0 0 1 0 0 0
POINTS 754
DATA ascii
1.598656709870707 -5.470523726778548 1.107837027156219 102.000000000000000
1.587168818671714 -5.502479635876731 1.113179679026763 108.000000000000000
1.574291728178666 -5.526594051105244 1.116995858934293 62.000000000000000
1.562428328810302 -5.558515807704016 1.122338510804837 102.000000000000000
1.548262537979917 -5.582854352934036 1.126154690712367 60.000000000000000
1.542234604845562 -5.637460245755771 1.136076758471948 54.000000000000000
1.526638293352973 -5.657973050694306 1.139129702397973 51.000000000000000
1.510917517545622 -5.678445478967821 1.142182646323997 46.000000000000000
1.479130245343452 -5.638109146955389 1.133023814545923 36.000000000000000
1.452558725394014 -5.616627844590456 1.127681162675380 36.000000000000000
1.427125123290515 -5.598834909946756 1.123101746786343 36.000000000000000
1.401833508925115 -5.580933130627777 1.118522330897306 37.000000000000000
1.378570846317410 -5.570546334823328 1.115469386971281 35.000000000000000
1.357257718046790 -5.567694915214491 1.113942915008268 34.000000000000000
1.330531489154021 -5.537804400415713 1.107073791174713 34.000000000000000
1.308480960694581 -5.530951970948673 1.104784083230195 33.000000000000000
1.283377360986601 -5.510628621983580 1.099823049350404 34.000000000000000
1.262817966325802 -5.509333989415181 1.098678195378145 35.000000000000000
1.240027081589097 -5.502434108787550 1.096388487433626 36.000000000000000
1.212738853183324 -5.470311457775384 1.089137745609318 38.000000000000000
1.189150599611828 -5.449367459548511 1.084176711729528 37.000000000000000
1.167238425516273 -5.440048212883441 1.081505385794256 39.000000000000000
1.145811003007988 -5.432563544595604 1.079215677849737 39.000000000000000
1.122856251007364 -5.417306134916076 1.075399497942207 39.000000000000000
1.100022025500514 -5.401954899471445 1.071583318034676 38.000000000000000
1.078078757254356 -5.390360751634731 1.068530374108651 38.000000000000000
1.058683180992072 -5.386200571375940 1.067003902145639 39.000000000000000
1.037271974874746 -5.376369315565743 1.064332576210367 36.000000000000000
1.017403071816552 -5.374170341247138 1.063187722238108 38.000000000000000
0.995769930149755 -5.362246963542685 1.060134778312083 39.000000000000000
0.972122210051714 -5.338649265378005 1.054792126441540 41.000000000000000
0.952101067317671 -5.334279240788625 1.053265654478527 41.000000000000000
0.932798726137603 -5.333702390982646 1.052502418497021 40.000000000000000
0.911854706425815 -5.323380474046515 1.049831092561750 41.000000000000000
0.887747078074403 -5.293615332211323 1.043343586718947 41.000000000000000
0.864812264169382 -5.269559166286690 1.038000934848404 41.000000000000000
0.844545714214081 -5.260915204702304 1.035711226903885 40.000000000000000
0.823741244832886 -5.248315085068577 1.032658282977861 40.000000000000000
0.804225624369527 -5.243396259431542 1.031131811014848 39.000000000000000
0.781554877702052 -5.217047761683380 1.025407541153552 37.000000000000000
0.761690400784791 -5.202127926441469 1.021972979236774 39.000000000000000
0.741305804111503 -5.189206843673986 1.018920035310749 41.000000000000000
0.722645862070322 -5.187873908453470 1.018156799329243 41.000000000000000
0.703212061982806 -5.180637736473625 1.016248709375478 41.000000000000000
0.681906742639787 -5.151800721540682 1.010142821523428 43.000000000000000
0.661912891052053 -5.138572302021250 1.007089877597404 45.000000000000000
0.641612549034578 -5.129275383130339 1.004800169652885 43.000000000000000
0.623230368429114 -5.127585956733587 1.004036933671379 43.000000000000000
0.605301591800938 -5.121825724986016 1.002510461708366 45.000000000000000
0.584736094491410 -5.100501674109017 0.997931045819329 43.000000000000000
0.564760472234231 -5.082999236904816 0.994114865911798 43.000000000000000
0.544868682257376 -5.073322873139289 0.991825157967280 43.000000000000000
0.526344839538592 -5.067382916495389 0.990298686004268 43.000000000000000
0.506985729983275 -5.061464114101105 0.988772214041255 41.000000000000000
0.489687355324484 -5.039497477933750 0.984192798152218 41.000000000000000
0.470117114589196 -5.029530019794185 0.981903090207700 43.000000000000000
0.451502590846377 -5.019408235215573 0.979613382263181 41.000000000000000
0.432427630037320 -5.013205395820102 0.978086910300169 43.000000000000000
0.414601861802996 -5.010771171367312 0.977323674318663 43.000000000000000
0.394222344080403 -4.986814177298618 0.972362640438872 46.000000000000000
0.376645713274039 -4.974390491431947 0.969691314503601 50.000000000000000
0.357564823568780 -4.963988469826772 0.967401606559082 48.000000000000000
0.342564339877134 -4.961110352891948 0.966638370577576 50.000000000000000
0.324122538389102 -4.958414444605980 0.965875134596070 50.000000000000000
0.305115361619083 -4.932082518139086 0.960532482725526 48.000000000000000
0.286352091729160 -4.921408057064800 0.958242774781008 46.000000000000000
0.271640517745726 -4.920275747702691 0.957861156790255 48.000000000000000
0.253099791860303 -4.911435047861896 0.955953066836489 46.000000000000000
0.235671562378156 -4.906405628495595 0.954808212864230 48.000000000000000
0.216904056686724 -4.889584522889010 0.951373650947452 46.000000000000000
0.200814340570261 -4.872587514258623 0.947939089030675 46.000000000000000
0.183027718734563 -4.875252679688429 0.948320707021428 47.000000000000000
0.165808382967734 -4.869975511595332 0.947175853049169 46.000000000000000
0.147540630092535 -4.856814075166277 0.944504527113897 43.000000000000000
0.131800770977920 -4.839590879131574 0.941069965197119 46.000000000000000
0.114627065043755 -4.828245257290913 0.938780257252600 46.000000000000000
0.097613665644564 -4.820764557022026 0.937253785289588 46.000000000000000
0.080752569221728 -4.819112943758931 0.936872167298835 51.000000000000000
0.064665837004369 -4.811501923489304 0.935345695335823 50.000000000000000
0.047674858320329 -4.792066763909917 0.931529515428292 54.000000000000000
0.030036722931706 -4.780430019931580 0.929239807483773 53.000000000000000
0.013338760256629 -4.776579250221461 0.928476571502267 54.000000000000000
-0.002498964769345 -4.772670711695080 0.927713335520761 55.000000000000000
-0.019127155371101 -4.764779957742065 0.926186863557748 53.000000000000000
-0.035641353381664 -4.748978570214284 0.923133919631724 50.000000000000000
-0.052088644963831 -4.737046412150509 0.920844211687205 51.000000000000000
-0.069335311006177 -4.728971506371770 0.919317739724193 53.000000000000000
-0.085770811860905 -4.724774808547679 0.918554503742687 50.000000000000000
-0.101438258144610 -4.724464403870413 0.918554503742687 50.000000000000000
-0.117537144709126 -4.708380391768159 0.915501559816662 48.000000000000000
-0.133748363996989 -4.700091585693947 0.913975087853650 50.000000000000000
-0.149777761990822 -4.687822563842724 0.911685379909131 50.000000000000000
-0.165322318283318 -4.687300107645911 0.911685379909131 48.000000000000000
-0.181530942179211 -4.682770906710452 0.910922143927625 50.000000000000000
-0.197046784533726 -4.662493682005810 0.907105964020094 50.000000000000000
-0.212961749512122 -4.653932646355164 0.905579492057082 51.000000000000000
-0.229630109981811 -4.645277402852121 0.904053020094069 51.000000000000000
-0.245843755136970 -4.644447543564138 0.904053020094069 50.000000000000000
-0.259773876649200 -4.631891240289621 0.901763312149551 51.000000000000000
-0.274772856285597 -4.611358457672424 0.897947132242020 54.000000000000000
-0.289631669840035 -4.590777639562071 0.894130952334489 53.000000000000000
-0.305132892082969 -4.581903006370807 0.892604480371477 54.000000000000000
-0.321399442357482 -4.584726875379880 0.893367716352983 55.000000000000000
-0.336536405995237 -4.571829308971477 0.891078008408464 54.000000000000000
-0.352685528654832 -4.562735471390490 0.889551536445452 57.000000000000000
-0.367661495145957 -4.549735318968811 0.887261828500933 58.000000000000000
-0.381953072352832 -4.548557826191222 0.887261828500933 57.000000000000000
-0.397485957392129 -4.543285282605214 0.886498592519427 58.000000000000000
-0.415285182079203 -4.545635782289494 0.887261828500933 57.000000000000000
-0.429295473901691 -4.524613705286773 0.883445648593402 58.000000000000000
nan nan nan nan
nan nan nan nan
-0.359085240594877 -3.405033910925736 0.665541775873388 110.000000000000000
-0.371394262345689 -3.407663119070568 0.666305011854894 110.000000000000000
-0.380500614599360 -3.386902985004815 0.662488831947364 110.000000000000000
-0.390060881748500 -3.366052115755844 0.658672652039833 113.000000000000000
-0.401220968124030 -3.364740119562346 0.658672652039833 111.000000000000000
-0.413920700691323 -3.371113580140112 0.660199124002845 110.000000000000000
-0.426520070367957 -3.371521572358763 0.660580741993598 108.000000000000000
-0.436513890224371 -3.356384188960343 0.657909416058326 110.000000000000000
-0.446083743570581 -3.343242152769497 0.655619708113808 105.000000000000000
-0.458816895588713 -3.349445021840600 0.657146180076820 110.000000000000000
-0.469995857457336 -3.339964474707135 0.655619708113808 111.000000000000000
-0.482773069890185 -3.346076069218876 0.657146180076820 110.000000000000000
-0.489845168255722 -3.321235964127513 0.652566764187783 105.000000000000000
-0.500848986746445 -3.315623388307681 0.651803528206277 110.000000000000000
-0.512096939524001 -3.307944983547064 0.650658674234018 105.000000000000000
-0.524869185078993 -3.313893612298752 0.652185146197030 108.000000000000000
-0.535178085064293 -3.304289289228616 0.650658674234018 105.000000000000000
-0.545426345025617 -3.294653469809350 0.649132202271005 108.000000000000000
-0.555613871017726 -3.284986460307706 0.647605730307993 105.000000000000000
-0.565740570494454 -3.275288567261366 0.646079258344981 105.000000000000000
-0.577279864332384 -3.277261470461256 0.646842494326487 105.000000000000000
-0.588716124735822 -3.275226421487456 0.646842494326487 105.000000000000000
-0.598590045373899 -3.261460664050160 0.644552786381968 50.000000000000000
-0.608526447671615 -3.251632316460295 0.643026314418956 102.000000000000000
-0.619305903121568 -3.249596491462218 0.643026314418956 50.000000000000000
-0.630645338689904 -3.247414912781160 0.643026314418956 50.000000000000000
-0.641215099432476 -3.241341903338161 0.642263078437450 48.000000000000000
-0.650974724679396 -3.231385540128601 0.640736606474437 102.000000000000000
-0.660672673440068 -3.221400630549923 0.639210134511425 48.000000000000000
-0.671913435066085 -3.219074826672344 0.639210134511425 48.000000000000000
-0.681769551104920 -3.212987992032296 0.638446898529919 50.000000000000000
-0.694637676517627 -3.218264840472597 0.639973370492931 48.000000000000000
-0.702499999469811 -3.200479670450469 0.636920426566907 50.000000000000000
-0.712812274801442 -3.194175744970662 0.636157190585400 50.000000000000000
-0.723957686189788 -3.191668105783122 0.636157190585400 102.000000000000000
-0.735976213126504 -3.192947757783362 0.636920426566907 102.000000000000000
-0.746221909682824 -3.186536190030769 0.636157190585400 102.000000000000000
-0.754614570059249 -3.172452184841374 0.633867482640882 105.000000000000000
-0.764761942072817 -3.165982025346777 0.633104246659376 105.000000000000000
-0.774873349917720 -3.159479725809644 0.632341010677870 105.000000000000000
-0.785897271500370 -3.156755664422441 0.632341010677870 108.000000000000000
-0.798835362778509 -3.161606882208007 0.633867482640882 105.000000000000000
-0.805417270525802 -3.143725821073576 0.630814538714857 108.000000000000000
-0.814410488888333 -3.133294765040849 0.629288066751845 108.000000000000000
-0.825342767026839 -3.130432852811286 0.629288066751845 108.000000000000000
-0.835250719383893 -3.123739549462120 0.628524830770339 108.000000000000000
-0.847658505581056 -3.128532309860344 0.630051302733351 108.000000000000000
-0.854413695638673 -3.110409345208117 0.626998358807326 108.000000000000000
-0.862646369758563 -3.095909614681854 0.624708650862808 108.000000000000000
-0.876115686457112 -3.102326347126008 0.626616740816573 110.000000000000000
-0.885857592632294 -3.099558643694959 0.626616740816573 110.000000000000000
-0.897217759514486 -3.098333318102609 0.626998358807326 113.000000000000000
-0.905234608914843 -3.081679746314982 0.624327032872055 113.000000000000000
-0.912626801225068 -3.067210766817744 0.622037324927536 110.000000000000000
-0.925087221467302 -3.073728314592314 0.623945414881302 113.000000000000000
-0.935238538204229 -3.068602461685948 0.623563796890548 113.000000000000000
-0.947102088450649 -3.069071095637505 0.624327032872055 110.000000000000000
-0.950783879100429 -3.043259257192297 0.619747616983018 113.000000000000000
-0.960217052399389 -3.036178115387437 0.618984381001511 113.000000000000000
-0.974999125028499 -3.045896401427105 0.621655706936783 113.000000000000000
-0.983129468096451 -3.032964447566813 0.619747616983018 111.000000000000000
-0.997381844388992 -3.040706993921021 0.622037324927536 110.000000000000000
-1.000752087529461 -3.018923297328964 0.618221145020005 118.000000000000000
-1.010035500720754 -3.011688897919170 0.617457909038499 113.000000000000000
-1.020542103352575 -3.008144867829758 0.617457909038499 118.000000000000000
-1.031036271000930 -3.004564184444444 0.617457909038499 113.000000000000000
-1.043329685311028 -3.004474294048619 0.618221145020005 111.000000000000000
-1.052509900323187 -2.997109380767990 0.617457909038499 110.000000000000000
-1.058503048481481 -2.982501530715149 0.615168201093981 110.000000000000000
-1.068907472907779 -2.978788495130983 0.615168201093981 113.000000000000000
-1.081456486802037 -2.982610190316013 0.616694673056993 113.000000000000000
-1.091861150680922 -2.978817031617897 0.616694673056993 114.000000000000000
-1.098159988878572 -2.963941831020196 0.614404965112474 111.000000000000000
-1.109187895194774 -2.961929045468450 0.614786583103227 113.000000000000000
-1.116045586795641 -2.948858457238804 0.612878493149462 111.000000000000000
-1.131942845703272 -2.959614478083811 0.615931437075487 110.000000000000000
-1.141559207741188 -2.953813974414445 0.615549819084733 102.000000000000000
-1.169715793046111 -2.995530523844331 0.625090268853561 18.000000000000000
-1.202156067791975 -3.050289640783899 0.637302044557660 18.000000000000000
-1.244750154652162 -3.126330611262218 0.654093236150796 20.000000000000000
-1.293017479749307 -3.214860563655661 0.673555753679203 15.000000000000000
-1.336744981141919 -3.290358331632748 0.690346945272339 16.000000000000000
-1.381760200136300 -3.367405313562280 0.707519754856228 17.000000000000000
-1.425825943655215 -3.440549767958194 0.723929328458611 11.000000000000000
-1.482545938407334 -3.542403381339227 0.746444789913043 12.000000000000000
-1.543815157078285 -3.652943574861784 0.770868341321241 34.000000000000000
-1.608185276855314 -3.768514909590914 0.796436746701698 53.000000000000000
-1.631429375850370 -3.786317444284293 0.801397780581488 139.000000000000000
-1.636147828303536 -3.762882389100673 0.797581600673957 137.000000000000000
-1.649272771067893 -3.757148242601082 0.797581600673957 137.000000000000000
-1.663968409942929 -3.754958142575968 0.798344836655464 137.000000000000000
-1.678668835551399 -3.752711183770333 0.799108072636970 136.000000000000000
-1.688526385684665 -3.739671407371649 0.797581600673957 135.000000000000000
-1.699941691255573 -3.730181596118344 0.796818364692451 135.000000000000000
-1.712952098296586 -3.724224966705177 0.796818364692451 135.000000000000000
-1.725941633556855 -3.718222958786085 0.796818364692451 136.000000000000000
-1.740575761501271 -3.715731369292005 0.797581600673957 136.000000000000000
-1.748501407131769 -3.698983324457823 0.795291892729439 136.000000000000000
-1.761402616039252 -3.692857380074257 0.795291892729439 136.000000000000000
-1.772579596628600 -3.683148352594871 0.794528656747932 135.000000000000000
-1.788212589540412 -3.684314857156236 0.796055128710945 135.000000000000000
-1.802789163551270 -3.681576798801156 0.796818364692451 137.000000000000000
-1.810411956083887 -3.664700364678514 0.794528656747932 136.000000000000000
-1.821441731668595 -3.654844247698061 0.793765420766426 136.000000000000000
-1.835952064781428 -3.651972101403724 0.794528656747932 135.000000000000000
-1.852240396431637 -3.652545105249184 0.796055128710945 135.000000000000000
-1.864342488237325 -3.646382771817306 0.796055128710945 136.000000000000000
-1.873460034359828 -3.632873203576309 0.794528656747932 136.000000000000000
-1.884317870483339 -3.622827986500689 0.793765420766426 137.000000000000000
-1.898776412923975 -3.619705560861254 0.794528656747932 137.000000000000000
-1.913236094359477 -3.616526296406390 0.795291892729439 135.000000000000000
-1.927696694005886 -3.613290147216492 0.796055128710945 137.000000000000000
-1.934716772417356 -3.596165661829620 0.793765420766426 137.000000000000000
-1.945385582807718 -3.585938994061418 0.793002184784920 136.000000000000000
-1.959775393294173 -3.582571264418081 0.793765420766426 137.000000000000000
-1.974165373588724 -3.579146726711496 0.794528656747932 136.000000000000000
-1.986646899884581 -3.572233798169614 0.794528656747932 136.000000000000000
-1.995263481341008 -3.558427626769063 0.793002184784920 137.000000000000000
-2.006432746820153 -3.552141771863009 0.793002184784920 137.000000000000000
-2.018819811648268 -3.545116373692518 0.793002184784920 137.000000000000000
-2.033755286612136 -3.541098119365331 0.793765420766426 137.000000000000000
-2.046103635440769 -3.533977415014359 0.793765420766426 136.000000000000000
-2.056447796360446 -3.523422483292432 0.793002184784920 137.000000000000000
-2.066743225349123 -3.512838437570445 0.792238948803414 137.000000000000000
-2.082998494841926 -3.512357289240628 0.793765420766426 136.000000000000000
-2.097260879271124 -3.508435123795969 0.794528656747932 137.000000000000000
-2.108883737951245 -3.501461065528376 0.794528656747932 136.000000000000000
-2.117018162786720 -3.487365428709398 0.793002184784920 137.000000000000000
-2.128571043207832 -3.480325968776985 0.793002184784920 137.000000000000000
-2.142767032909233 -3.476217182437378 0.793765420766426 136.000000000000000
-2.154888240866692 -3.468716351356789 0.793765420766426 138.000000000000000
-2.169066829875776 -3.464501306268908 0.794528656747932 137.000000000000000
-2.179051739508926 -3.453587985463614 0.793765420766426 137.000000000000000
-2.188986914869316 -3.442647211297907 0.793002184784920 136.000000000000000
-2.203109034243560 -3.438291296564314 0.793765420766426 137.000000000000000
-2.217227389960981 -3.433878698325428 0.794528656747932 137.000000000000000
-2.229798291868558 -3.425729088994981 0.794528656747932 135.000000000000000
-2.239589282034255 -3.414641460621128 0.793765420766426 137.000000000000000
-2.253659859737646 -3.410078804106089 0.794528656747932 136.000000000000000
-2.263373205684053 -3.398923092478998 0.793765420766426 136.000000000000000
-2.279599302666286 -3.397522895381605 0.795291892729439 135.000000000000000
-2.293644066146904 -3.392797832155948 0.796055128710945 136.000000000000000
-2.300462661039723 -3.378681955847333 0.794528656747932 136.000000000000000
-2.310021272484255 -3.367393380266957 0.793765420766426 137.000000000000000
-2.326226521657814 -3.365769596287692 0.795291892729439 135.000000000000000
-2.340204802537277 -3.360851337717047 0.796055128710945 137.000000000000000
-2.354177064561242 -3.355876464112269 0.796818364692451 137.000000000000000
-2.363610751408363 -3.344431857263621 0.796055128710945 136.000000000000000
-2.372411504703261 -3.333376435044568 0.795291892729439 136.000000000000000
-2.386320645588489 -3.328265916132775 0.796055128710945 136.000000000000000
-2.400222987601254 -3.323098870554315 0.796818364692451 137.000000000000000
-2.416428466512563 -3.321050283873056 0.798344836655464 138.000000000000000
-2.423363914071353 -3.306261307529341 0.796818364692451 136.000000000000000
-2.432557885557119 -3.294623250914569 0.796055128710945 135.000000000000000
-2.448730011510800 -3.292413236668915 0.797581600673957 137.000000000000000
-2.460207759933673 -3.283845515280599 0.797581600673957 137.000000000000000
-2.475813204122919 -3.281938339843854 0.799108072636970 137.000000000000000
-2.482503021377495 -3.267023467794191 0.797581600673957 137.000000000000000
-2.494460586488342 -3.257902695404300 0.797581600673957 137.000000000000000
-2.508215503606520 -3.252284813673835 0.798344836655464 137.000000000000000
-2.521961565588321 -3.246610563332431 0.799108072636970 137.000000000000000
-2.538118106056311 -3.243972380539376 0.800634544599982 138.000000000000000
-2.546995880172998 -3.232008953581463 0.799871308618476 137.000000000000000
-2.558262179630325 -3.223098588303197 0.799871308618476 137.000000000000000
-2.568936293519126 -3.214597363510582 0.799871308618476 137.000000000000000
-2.585065616023134 -3.211728095299165 0.801397780581488 137.000000000000000
-2.598733519559116 -3.205735141559032 0.802161016562994 138.000000000000000
-2.607424529637122 -3.193602811798252 0.801397780581488 137.000000000000000
-2.617444645151814 -3.185395599740347 0.801397780581488 138.000000000000000
-2.628547804441603 -3.176239606365411 0.801397780581488 130.000000000000000
-2.645903742695688 -3.174585494635883 0.803305870535254 133.000000000000000
nan nan nan nan
nan nan nan nan
-6.646051246409954 -7.803563248215464 1.992427529721881 3.000000000000000
-6.689866298008441 -7.799689214370282 1.997388563601671 3.000000000000000
-6.720901585893792 -7.780746882630910 1.998533417573930 3.000000000000000
-6.757040210148641 -7.767607815343839 2.001204743509202 3.000000000000000
-6.790581507730646 -7.751357672258618 2.003112833462967 3.000000000000000
-6.820195099579424 -7.730551306471008 2.003876069444474 2.000000000000000
-6.848442176902010 -7.708164948415832 2.004257687435226 1.000000000000000
-6.877925137897895 -7.687138667549410 2.005020923416733 1.000000000000000
-6.909973087836444 -7.668917490459188 2.006547395379745 1.000000000000000
-6.936700507607038 -7.644750461451247 2.006547395379745 1.000000000000000
-6.958046073496845 -7.614693029647107 2.005020923416733 0.000000000000000
nan nan nan nan
nan nan nan nan
-21.212669746107423 -22.731889505837326 6.043684119556680 4.000000000000000
-6.296010548727685 -6.699882074888988 1.787117050696719 0.000000000000000
-6.217207105723948 -6.574512178093733 1.758877319380990 0.000000000000000
-6.156176846603939 -6.464622539833663 1.735217003954298 0.000000000000000
-6.050972892675368 -6.309896189270373 1.699344912823508 1.000000000000000
-6.079780631537316 -6.295797145153664 1.701253002777274 1.000000000000000
-6.109932299243599 -6.282981261424110 1.703542710721792 1.000000000000000
-6.131826772877170 -6.261615339524892 1.703542710721792 1.000000000000000
-6.161917562421722 -6.248560451283620 1.705832418666311 1.000000000000000
-21.310910203481825 -21.460210184983101 5.878825147551346 4.000000000000000
-21.382914022225219 -21.382914022225226 5.878061911569840 4.000000000000000
-21.404487471098037 -21.255575155890835 5.863560427921222 4.000000000000000
-21.463674628215546 -21.173448455179251 5.860507483995198 4.000000000000000
nan nan nan nan
-21.757321782005871 -21.165460612198768 5.900195755033518 4.000000000000000
-5.468710687910611 -5.282917400676483 1.478006478186716 0.000000000000000
-5.381376591192427 -5.164161729015977 1.449766746870987 0.000000000000000
-5.356732267963017 -5.104713914055246 1.438318207148395 0.000000000000000
-5.324062243724899 -5.036475867507687 1.424579959481284 0.000000000000000
-5.261479078909175 -4.942586106145577 1.403209351999110 0.000000000000000
-5.267792794495358 -4.915735175109823 1.400538026063839 0.000000000000000
-5.287799884541417 -4.899986036106013 1.401301262045345 0.000000000000000
-5.315838111083399 -4.889876291784108 1.403972587980617 0.000000000000000
-5.335773667974165 -4.873938923399736 1.404735823962123 0.000000000000000
-5.354814748863624 -4.858856593669975 1.405499059943629 0.000000000000000
-5.468005262786513 -4.926871264035533 1.430685847333333 0.000000000000000
nan nan nan nan
nan nan nan nan
-22.543883480478097 -19.889096850097076 5.843716292402061 4.000000000000000
nan nan nan nan
nan nan nan nan
nan nan nan nan
nan nan nan nan
nan nan nan nan
nan nan nan nan
nan nan nan nan
-4.644478943370557 -3.875130441671381 1.175765029510269 0.000000000000000
-4.615645872287526 -3.823825102464382 1.165079725769183 0.000000000000000
-4.585653713019704 -3.770721213824547 1.154012804037343 0.000000000000000
-4.566852020871498 -3.728617077381087 1.145998826231528 0.000000000000000
-4.543237386633850 -3.682981519869940 1.136839994453454 0.000000000000000
-4.499478122081021 -3.621553829685742 1.122720128795590 0.000000000000000
-4.461480787429525 -3.565379617293481 1.110126735100738 0.000000000000000
-4.460057546067133 -3.538801932799149 1.106692173183960 1.000000000000000
-4.468069438662633 -3.522341930753919 1.105928937202454 3.000000000000000
-4.495797587244390 -3.518824495421456 1.109745117109985 3.000000000000000
-4.506502962394586 -3.501905149593683 1.109363499119232 3.000000000000000
-4.520253857573882 -3.487352410947161 1.109745117109985 1.000000000000000
-4.554219805256708 -3.488265648266712 1.115087768980528 1.000000000000000
-4.567931133220488 -3.473535548815487 1.115469386971281 1.000000000000000
-4.620767423303042 -3.488324310232654 1.125391454730861 0.000000000000000
nan nan nan nan
nan nan nan nan
nan nan nan nan
nan nan nan nan
nan nan nan nan
nan nan nan nan
nan nan nan nan
-24.186559537012521 -17.226641452189952 5.771972110140481 3.000000000000000
nan nan nan nan
-25.967862083650353 -18.216685264423358 6.165801876597669 4.000000000000000
-26.021625098498561 -18.119198353681501 6.163512168653150 4.000000000000000
-26.081567449776539 -18.032807909741109 6.163512168653150 4.000000000000000
-4.131037919973908 -2.834939452701366 0.973889112401885 5.000000000000000
-4.123059793992924 -2.808344830987694 0.969691314503601 5.000000000000000
-4.110067172511063 -2.778541972748433 0.964348662633058 9.000000000000000
-4.096437174172295 -2.749579231333527 0.959006010762514 43.000000000000000
-4.117447393781930 -2.742882363412665 0.961677336697786 50.000000000000000
-4.132386562324526 -2.731020089393893 0.962822190670045 45.000000000000000
nan nan nan nan
-4.203527066043314 -2.737109601287095 0.975033966374144 1.000000000000000
-4.176778951223694 -2.698978298012384 0.966638370577576 0.000000000000000
-4.191132661777864 -2.687561467512645 0.967783224549835 1.000000000000000
-4.231959004834378 -2.692941095868591 0.975033966374144 0.000000000000000
-2.823682196844528 -1.782989129298902 0.649132202271005 1.000000000000000
nan nan nan nan
-2.791044057287601 -1.735244996177648 0.638828516520672 25.000000000000000
-2.765337116062220 -1.705907426866497 0.631577774696363 26.000000000000000
-2.774030984178101 -1.699262470907531 0.632341010677870 28.000000000000000
-2.759813240558040 -1.677333078833393 0.627761594788832 27.000000000000000
-2.748838941327616 -1.657551384992174 0.623945414881302 28.000000000000000
-2.734390821182446 -1.635851031214487 0.619365998992264 34.000000000000000
-2.711383526171522 -1.609261733417075 0.612878493149462 32.000000000000000
-2.706833752669924 -1.593810644583856 0.610588785204943 31.000000000000000
-2.705599747346779 -1.580391440670772 0.609062313241931 32.000000000000000
-2.690715650056098 -1.559125946596696 0.604482897352894 32.000000000000000
-2.675716307165695 -1.537983763404258 0.599903481463857 31.000000000000000
-2.660602398689006 -1.516965435676693 0.595324065574820 32.000000000000000
-2.655627996983853 -1.501870231513211 0.593034357630301 32.000000000000000
-2.648868493152670 -1.485867826151087 0.590363031695030 33.000000000000000
-2.643488621253719 -1.471346891523253 0.588073323750511 35.000000000000000
-2.624545841545865 -1.448827142786409 0.582730671879968 35.000000000000000
-2.608922469995230 -1.428343330838249 0.578151255990931 35.000000000000000
-2.603540375011144 -1.413607085851095 0.575861548046412 33.000000000000000
-2.599815917880872 -1.399856643044827 0.573953458092647 34.000000000000000
-2.594295453953585 -1.385224766730058 0.571663750148128 39.000000000000000
-2.574824191154104 -1.363299232851424 0.566321098277585 38.000000000000000
-2.558708272014324 -1.343351875344935 0.561741682388548 38.000000000000000
-2.552933289262409 -1.328972952646702 0.559451974444029 38.000000000000000
-2.554067553912106 -1.318252564408120 0.558688738462523 39.000000000000000
-2.544899073972255 -1.301730220562215 0.555635794536498 39.000000000000000
-2.528415691265494 -1.282183668479045 0.551056378647461 41.000000000000000
-2.513139931995636 -1.264527332591102 0.546858580749177 39.000000000000000
-2.512268152582453 -1.253118213867789 0.545713726776918 42.000000000000000
-2.507827650586609 -1.239990283958958 0.543805636823153 43.000000000000000
-2.501563311162421 -1.226044656208255 0.541515928878634 41.000000000000000
-2.488168654900254 -1.208726488800621 0.537699748971103 41.000000000000000
-2.474683791197134 -1.191516877039567 0.533883569063572 41.000000000000000
-2.471740456816554 -1.179489311228788 0.532357097100560 42.000000000000000
-2.470518191507209 -1.168336175157883 0.531212243128301 39.000000000000000
-2.456804229397215 -1.151374122913656 0.527396063220770 38.000000000000000
-2.443002169157543 -1.134522149312756 0.523579883313239 38.000000000000000
-2.430896101969776 -1.118601352608480 0.520145321396461 39.000000000000000
-2.434785939513401 -1.110109126787640 0.520145321396461 44.000000000000000
-2.438646109958725 -1.101603374637421 0.520145321396461 42.000000000000000
-2.428140680335229 -1.086668445140073 0.517092377470436 43.000000000000000
-2.410381777377912 -1.068637521096633 0.512512961581399 44.000000000000000
-2.385336680315838 -1.047586176510883 0.506407073729350 44.000000000000000
-2.388978906198103 -1.039253415398473 0.506407073729350 43.000000000000000
-2.388986006512707 -1.029354249048450 0.505643837747844 44.000000000000000
-2.381552885211064 -1.016801099012385 0.503354129803325 42.000000000000000
-2.367005129257055 -1.000835927954577 0.499537949895794 34.000000000000000
-2.368673365641064 -0.991809176818676 0.499156331905041 12.000000000000000
-2.377561639462928 -0.985790735381562 0.500301185877300 9.000000000000000
-3.984659134076582 -1.635852911218782 0.837269871712279 1.000000000000000
-4.001257571097641 -1.626369442021188 0.839559579656797 1.000000000000000
-4.010552928573408 -1.613858349617143 0.840322815638303 1.000000000000000
-4.023457392156740 -1.602755249707341 0.841849287601316 1.000000000000000
-4.036333120065900 -1.591581688773267 0.843375759564328 1.000000000000000
-4.072955449188528 -1.589617041628897 0.849863265407131 3.000000000000000
-4.082142190890433 -1.576804898675670 0.850626501388637 1.000000000000000
-4.089455233762049 -1.563246964432219 0.851008119379390 1.000000000000000
-4.101690248845999 -1.553172840699417 0.852534591342402 1.000000000000000
-4.121794407479983 -1.544356445889367 0.855587535268427 1.000000000000000
-2.303038031432463 -0.853290773967139 0.477404106432115 0.000000000000000
-2.272822648505488 -0.833084652716321 0.470534982598560 7.000000000000000
nan nan nan nan
-2.250863251450223 -0.807255612922949 0.464810712737263 54.000000000000000
-2.242565576583657 -0.795455815773269 0.462521004792745 53.000000000000000
-2.247181154406735 -0.788272808803763 0.462902622783498 50.000000000000000
-2.246209372490013 -0.779137113802378 0.462139386801992 50.000000000000000
-2.222916362103798 -0.762374966828783 0.456796734931448 50.000000000000000
-2.221845434828106 -0.753350059115270 0.456033498949942 52.000000000000000
-2.217015684529831 -0.743094083523901 0.454507026986930 48.000000000000000
-2.223323341503100 -0.736585573293521 0.455270262968436 49.000000000000000
-2.218417821558542 -0.726376583540165 0.453743791005424 49.000000000000000
-2.202011903949079 -0.713353152119128 0.449927611097893 52.000000000000000
-2.195139579665697 -0.702669719326863 0.448019521144127 53.000000000000000
-2.188219615837184 -0.692042992758871 0.446111431190362 52.000000000000000
-2.192495893420559 -0.684985922750925 0.446493049181115 55.000000000000000
-2.191121662411128 -0.676170684175036 0.445729813199609 55.000000000000000
-2.174688892675842 -0.662794508715116 0.441913633292078 56.000000000000000
-2.150669842136764 -0.647278153736142 0.436570981421535 55.000000000000000
-2.156680001367409 -0.640885445294509 0.437334217403041 56.000000000000000
-2.162671690536639 -0.634458651363013 0.438097453384547 57.000000000000000
-2.149786964477769 -0.622536972517660 0.435044509458522 56.000000000000000
-2.144289236999335 -0.613245284739192 0.433518037495510 56.000000000000000
-2.123743381888077 -0.599357745241467 0.428938621606473 56.000000000000000
-2.129605194755644 -0.592994121433943 0.429701857587979 57.000000000000000
-2.127875900191067 -0.584516733960966 0.428938621606473 55.000000000000000
-2.126113417118901 -0.576058657336128 0.428175385624967 56.000000000000000
-2.109144160331878 -0.563565591090164 0.424359205717436 57.000000000000000
-2.105403112051063 -0.554699331388286 0.423214351745176 58.000000000000000
-2.101625934379053 -0.545866074229835 0.422069497772917 55.000000000000000
-2.099714727710735 -0.537552877408335 0.421306261791411 53.000000000000000
-2.101578345242355 -0.530220230266400 0.421306261791411 57.000000000000000
-2.082458402885530 -0.517671256300913 0.417108463893127 52.000000000000000
-2.078531995476949 -0.508998054023995 0.415963609920868 53.000000000000000
-2.076391569108814 -0.501181305731223 0.415200373939362 56.000000000000000
-2.080038412711064 -0.494384273242823 0.415581991930115 52.000000000000000
-2.074104993546015 -0.485331332320775 0.414055519967102 52.000000000000000
-2.066220643577773 -0.475885225644225 0.412147430013337 55.000000000000000
-2.064039817474447 -0.467801963207544 0.411384194031831 55.000000000000000
-2.054162995278735 -0.458030665218447 0.409094486087312 57.000000000000000
-2.059584659187418 -0.451698659839064 0.409857722068818 56.000000000000000
-2.051553169096056 -0.442437218178041 0.407949632115053 58.000000000000000
-2.035724609416756 -0.431963971411368 0.404515070198275 57.000000000000000
-2.031454325631846 -0.423652913991438 0.403370216226016 58.000000000000000
-2.025227601684595 -0.414982850936704 0.401843744263003 58.000000000000000
-2.030513137786190 -0.408685718781653 0.402606980244510 60.000000000000000
-2.024223356648271 -0.400072778724401 0.401080508281497 60.000000000000000
-2.010189023001940 -0.390013012367222 0.398027564355472 60.000000000000000
-1.999966527533631 -0.380790543144567 0.395737856410954 60.000000000000000
-2.001283550101468 -0.373807037248533 0.395737856410954 58.000000000000000
-2.006310023651934 -0.368226795230007 0.396501092392460 60.000000000000000
-2.003781592379051 -0.360176177788229 0.395737856410954 61.000000000000000
-1.989619869003154 -0.350107606850486 0.392684912484929 60.000000000000000
-1.975411465135674 -0.340147721567327 0.389631968558905 49.000000000000000
-1.972540485005040 -0.333630250186838 0.388868732577398 37.000000000000000
-1.975686999866891 -0.326718599316805 0.389250350568151 13.000000000000000
-1.988443750070478 -0.321701469355598 0.391540058512670 6.000000000000000
-2.001244632116695 -0.316249960436979 0.393829766457188 5.000000000000000
-1.990533606937171 -0.308506632398062 0.391540058512670 2.000000000000000
-1.974180347695220 -0.298566706593415 0.388105496595892 0.000000000000000
-1.971326126154391 -0.291100115910766 0.387342260614386 0.000000000000000
-1.976266283099441 -0.284432244649540 0.388105496595892 0.000000000000000
-2.043249512757392 -0.287523659014938 0.401080508281497 0.000000000000000
nan nan nan nan
nan nan nan nan
nan nan nan nan
nan nan nan nan
nan nan nan nan
nan nan nan nan
nan nan nan nan
nan nan nan nan
nan nan nan nan
nan nan nan nan
nan nan nan nan
nan nan nan nan
nan nan nan nan
nan nan nan nan
nan nan nan nan
nan nan nan nan
nan nan nan nan
nan nan nan nan
nan nan nan nan
-0.491552348827308 -0.034717551835939 0.095786115679025 9.000000000000000
nan nan nan nan
nan nan nan nan
nan nan nan nan
nan nan nan nan
nan nan nan nan
nan nan nan nan
-0.492257794802080 -0.022611578885991 0.095786115679025 9.000000000000000
nan nan nan nan
nan nan nan nan
nan nan nan nan
nan nan nan nan
nan nan nan nan
nan nan nan nan
-0.492659578545710 -0.010749870245163 0.095786115679025 9.000000000000000
nan nan nan nan
nan nan nan nan
nan nan nan nan
nan nan nan nan
-0.492771772435129 -0.002236142720376 0.095786115679025 9.000000000000000
nan nan nan nan
nan nan nan nan
nan nan nan nan
nan nan nan nan
nan nan nan nan
nan nan nan nan
nan nan nan nan
nan nan nan nan
nan nan nan nan
-0.492552233424036 0.014876739969445 0.095786115679025 9.000000000000000
nan nan nan nan
nan nan nan nan
nan nan nan nan
nan nan nan nan
nan nan nan nan
-0.492132653644809 0.025188712941381 0.095786115679025 9.000000000000000
nan nan nan nan
nan nan nan nan
-0.491852459920806 0.030169151678095 0.095786115679025 9.000000000000000
nan nan nan nan
-0.491629855122475 0.033602166528050 0.095786115679025 9.000000000000000
nan nan nan nan
nan nan nan nan
-0.491257779530188 0.038662825739898 0.095786115679025 9.000000000000000
nan nan nan nan
nan nan nan nan
-0.490825974789967 0.043805051245298 0.095786115679025 9.000000000000000
-0.490670076346040 0.045518086753464 0.095786115679025 9.000000000000000
nan nan nan nan
nan nan nan nan
-0.490166517016563 0.050653782079684 0.095786115679025 9.000000000000000
nan nan nan nan
-0.489810375091889 0.053989040512560 0.095786115679025 9.000000000000000
-0.489618934078795 0.055698468871856 0.095786115679025 9.000000000000000
-0.489421527213503 0.057407218562885 0.095786115679025 9.000000000000000
-0.489218156901354 0.059115268765073 0.095786115679025 9.000000000000000
-0.489008825620351 0.060822598666367 0.095786115679025 9.000000000000000
-0.488793535921129 0.062529187463490 0.095786115679025 9.000000000000000
-0.488572290426926 0.064235014362197 0.095786115679025 9.000000000000000
-0.488345091833548 0.065940058577526 0.095786115679025 9.000000000000000
-0.488111942909339 0.067644299334050 0.095786115679025 9.000000000000000
-0.487872846495144 0.069347715866134 0.095786115679025 9.000000000000000
-0.487627805504278 0.071050287418185 0.095786115679025 9.000000000000000
-0.487376822922487 0.072751993244906 0.095786115679025 9.000000000000000
-0.487119901807916 0.074452812611548 0.095786115679025 9.000000000000000
-0.486857045291067 0.076152724794165 0.095786115679025 9.000000000000000
-0.486601836850050 0.077766782222756 0.095786115679025 9.000000000000000
-0.486327415576717 0.079464865831358 0.095786115679025 9.000000000000000
-0.486032895716461 0.081246811165708 0.095786115679025 9.000000000000000
-0.485746330341357 0.082942887597609 0.095786115679025 9.000000000000000
-0.485468611016140 0.084553224428076 0.095786115679025 9.000000000000000
-0.485170507542718 0.086247310994988 0.095786115679025 9.000000000000000
-0.484866492419772 0.087940346665633 0.095786115679025 9.000000000000000
-0.484556569351630 0.089632310810907 0.095786115679025 9.000000000000000
-0.484240742114608 0.091323182814760 0.095786115679025 9.000000000000000
-0.483919014556960 0.093012942074450 0.095786115679025 9.000000000000000
-0.483591390598835 0.094701568000793 0.095786115679025 9.000000000000000
-0.483257874232228 0.096389040018417 0.095786115679025 9.000000000000000
-0.482935579541130 0.097991050899544 0.095786115679025 9.000000000000000
-0.482590584731813 0.099676213668716 0.095786115679025 9.000000000000000
-0.482257393049054 0.101275993664121 0.095786115679025 9.000000000000000
-0.481900935781370 0.102958769107658 0.095786115679025 9.000000000000000
-0.481520336192791 0.104724332778521 0.095786115679025 9.000000000000000
-0.481151846465700 0.106404514405039 0.095786115679025 9.000000000000000
-0.480796350844331 0.107999486377942 0.095786115679025 9.000000000000000
-0.480416433108460 0.109677120870621 0.095786115679025 9.000000000000000
-0.480030661649962 0.111353418982195 0.095786115679025 9.000000000000000
nan nan nan nan
-0.479221549876813 0.114785566064682 0.095786115679025 9.000000000000000
nan nan nan nan
-0.478408523670537 0.118128339201488 0.095786115679025 9.000000000000000
-0.477993264187683 0.119797576913427 0.095786115679025 9.000000000000000
nan nan nan nan
nan nan nan nan
nan nan nan nan
nan nan nan nan
nan nan nan nan
nan nan nan nan
nan nan nan nan
nan nan nan nan
nan nan nan nan
nan nan nan nan
nan nan nan nan
nan nan nan nan
nan nan nan nan
nan nan nan nan
nan nan nan nan
nan nan nan nan
nan nan nan nan
nan nan nan nan
nan nan nan nan
nan nan nan nan
nan nan nan nan
nan nan nan nan
nan nan nan nan
nan nan nan nan
nan nan nan nan
nan nan nan nan
nan nan nan nan
nan nan nan nan
nan nan nan nan
nan nan nan nan
nan nan nan nan
nan nan nan nan
nan nan nan nan
nan nan nan nan
nan nan nan nan
nan nan nan nan
nan nan nan nan
nan nan nan nan
nan nan nan nan
nan nan nan nan
nan nan nan nan
nan nan nan nan
nan nan nan nan
nan nan nan nan
nan nan nan nan
nan nan nan nan
nan nan nan nan
nan nan nan nan
nan nan nan nan
nan nan nan nan
-1.946669423550380 0.874459578898464 0.414818755948608 0.000000000000000
-1.941817085009462 0.880438678754324 0.414437137957855 2.000000000000000
-1.935161541527055 0.885577614338966 0.413673901976349 7.000000000000000
-1.910670407531090 0.882449032657375 0.409094486087312 18.000000000000000
-1.898681157584582 0.884966157904948 0.407186396133547 28.000000000000000
-1.899133584856372 0.893259606457035 0.407949632115053 46.000000000000000
-1.896003956775230 0.899883377749508 0.407949632115053 56.000000000000000
-1.899933925180136 0.909888125067391 0.409476104078065 61.000000000000000
-1.888066916353611 0.911914268576680 0.407568014124300 70.000000000000000
-1.890166823712041 0.921079350539690 0.408712868096559 72.000000000000000
-1.893987536715878 0.931136345887329 0.410239340059571 70.000000000000000
-1.890725725492126 0.937741923361519 0.410239340059571 72.000000000000000
-1.897975430100674 0.949606787721635 0.412529048004090 70.000000000000000
-1.884133029380606 0.950918719694037 0.410239340059571 72.000000000000000
-1.873803890962954 0.953927025334946 0.408712868096559 74.000000000000000
-1.873955575835380 0.962255589739306 0.409476104078065 70.000000000000000
-1.888359695739264 0.977160758271372 0.413292283985596 66.000000000000000
-1.926708726527773 1.005546884989336 0.422451115763670 77.000000000000000
nan nan nan nan
nan nan nan nan
-7.627944583518123 4.083214198949512 1.681790485248866 1.000000000000000
-7.618827910176512 4.112613514435324 1.682935339221125 1.000000000000000
-7.595082275181047 4.135815834929225 1.681027249267360 1.000000000000000
-7.575436588234945 4.159467710610205 1.679882395295101 1.000000000000000
-7.560871184232237 4.185885578157174 1.679882395295101 1.000000000000000
-7.546213653400222 4.212252442009344 1.679882395295101 1.000000000000000
-7.538307849188016 4.242419473835199 1.681408867258113 1.000000000000000
-7.530283304635048 4.272582590885207 1.682935339221125 1.000000000000000
-7.499778501068286 4.286476558169886 1.679119159313594 1.000000000000000
-7.488172382666326 4.314589842088228 1.679882395295101 1.000000000000000
-7.469670728142823 4.338730005652838 1.679119159313594 1.000000000000000
-7.464645426626665 4.370729558763320 1.681408867258113 1.000000000000000
-7.445961802089662 4.394763600455946 1.680645631276607 1.000000000000000
-7.423826917399508 4.416712889618311 1.679119159313594 1.000000000000000
-7.409272533958386 4.444902884941805 1.679500777304347 2.000000000000000
-7.393711787588724 4.470738992728793 1.679500777304347 2.000000000000000
-7.384660506129445 4.497008280099433 1.680645631276607 1.000000000000000
-7.375610959838816 4.526866022336861 1.682172103239619 2.000000000000000
-7.348952879573711 4.547670031101954 1.679882395295101 1.000000000000000
-7.336365459177686 4.575372783878426 1.680645631276607 1.000000000000000
-7.317025322539591 4.598864160560955 1.679882395295101 1.000000000000000
-7.307561904497146 4.628579396861181 1.681408867258113 1.000000000000000
-7.294670368653756 4.656171949978576 1.682172103239619 2.000000000000000
-7.275070506788983 4.679482593445015 1.681408867258113 1.000000000000000
-7.249626927598002 4.697176626386532 1.679119159313594 1.000000000000000
-7.243049990361619 4.728893639978420 1.681408867258113 2.000000000000000
-7.233889940616662 4.757201380123163 1.682935339221125 1.000000000000000
-7.227059511890417 4.788930084267240 1.685225047165644 1.000000000000000
-7.202928356168325 4.811024652167863 1.683698575202631 1.000000000000000
-7.182833342662780 4.833945988065291 1.682935339221125 1.000000000000000
-7.168389022981281 4.858840071124426 1.683316957211878 2.000000000000000
-7.157869880055593 4.888261592770904 1.684843429174891 2.000000000000000
-7.158554310244714 4.925458752291403 1.689041227073175 1.000000000000000
-7.121955728769730 4.936994936609340 1.684461811184137 1.000000000000000
-7.157795097867530 4.998920780382171 1.697055204878990 0.000000000000000
-8.585382234146520 6.040625889270355 2.040511396556770 0.000000000000000
nan nan nan nan
-8.543001832741959 6.100415471612528 2.040511396556770 0.000000000000000
-8.523794685848104 6.127223954943180 2.040511396556770 0.000000000000000
-8.502354753004235 6.156940221781290 2.040511396556770 0.000000000000000
-8.480811221650880 6.186581468245809 2.040511396556770 0.000000000000000
nan nan nan nan
-8.437414414679361 6.245637456295625 2.040511396556770 0.000000000000000
nan nan nan nan
nan nan nan nan
-8.371548818782900 6.333649786280938 2.040511396556770 0.000000000000000
nan nan nan nan
nan nan nan nan
-6.914063473541337 5.343795521063482 1.698581676842002 0.000000000000000
-6.876777949997540 5.353425573061971 1.694002260952965 1.000000000000000
-6.867318833470032 5.384665783103135 1.696291968897483 1.000000000000000
-6.886998895089473 5.439023991348392 1.705832418666311 1.000000000000000
-6.866434741461065 5.461808812813903 1.705450800675558 1.000000000000000
-6.847327638128731 5.485743867753353 1.705450800675558 1.000000000000000
-6.834248659309411 5.514543485495685 1.706977272638570 1.000000000000000
-6.814957673705871 5.538365868764256 1.706977272638570 1.000000000000000
-6.813814592046045 5.577042621961646 1.711556688527607 1.000000000000000
-6.783701300904105 5.592051812852739 1.708885362592335 1.000000000000000
-6.769201074159278 5.621895069619666 1.710411834555348 1.000000000000000
-6.742006155303062 5.639191782209398 1.708503744601582 1.000000000000000
-6.745284254087762 5.678044985807635 1.713846396472125 1.000000000000000
-6.728418150802601 5.704094932261150 1.714609632453632 1.000000000000000
-6.714438523308245 5.732645827873186 1.716136104416644 1.000000000000000
-6.686943778545327 5.749648790752754 1.714228014462879 1.000000000000000
-6.672769647507288 5.778096206676983 1.715754486425891 1.000000000000000
-6.656998660558243 5.805224327126915 1.716899340398150 1.000000000000000
-6.638169238050701 5.829721715223829 1.717280958388903 1.000000000000000
-6.628073593004868 5.861962178772529 1.719952284324175 1.000000000000000
-6.604639008752236 5.882451239077713 1.719189048342669 1.000000000000000
-6.586988187700001 5.908091633916039 1.719952284324175 1.000000000000000
-6.569238803112861 5.933680446894277 1.720715520305681 1.000000000000000
-6.561557202092439 5.968464591303287 1.724150082222459 1.000000000000000
-6.547520685994610 5.995494082793114 1.725676554185471 1.000000000000000
-6.527995905299462 6.019643564751748 1.726058172176224 1.000000000000000
-6.505505022727214 6.041057923046719 1.725676554185471 1.000000000000000
-6.492981936226317 6.071775207694968 1.727966262129990 1.000000000000000
-6.486040657559784 6.107862323426422 1.731782442037521 1.000000000000000
-6.470378988307750 6.135869291006115 1.733308914000533 1.000000000000000
