# This PCD file was generated using the MATLABÂ® pcwrite function
# from Computer Vision ToolboxÂ®.
# .PCD v.7 - Point Cloud Data file format
VERSION .7
FIELDS x y z intensity
SIZE 8 8 8 8
TYPE F F F F
COUNT 1 1 1 1
WIDTH 654
HEIGHT 1
VIEWPOINT 0 0 0 1 0 0 0
POINTS 654
DATA ascii
7.437121187427472 4.156466541457811 1.349403695437031 77.000000000000000
7.467416079759709 4.142664509706469 1.352532384737836 80.000000000000000
7.492934764999434 4.120978918587925 1.354409598318319 80.000000000000000
7.522579010184199 4.099740158576243 1.356912549758962 77.000000000000000
7.561173161095289 4.086605752041534 1.361292714780089 77.000000000000000
7.595574135685698 4.072711117864981 1.365047141941055 75.000000000000000
7.627893509324664 4.054115378872229 1.368175831241859 71.000000000000000
7.648285022169008 4.032483238726666 1.369427306962181 73.000000000000000
7.672817934834669 4.011252279627735 1.371304520542664 75.000000000000000
7.706423199522486 3.998043816693585 1.375058947703629 78.000000000000000
7.741411431512964 3.981961667989147 1.378813374864595 78.000000000000000
7.774244696629836 3.961175523529997 1.381942064165399 80.000000000000000
7.802817701669441 3.939777647695061 1.384445015606043 80.000000000000000
7.832817722782417 3.924092982475926 1.387573704906848 78.000000000000000
7.871918784765254 3.907654420499908 1.391953869927974 77.000000000000000
7.908965838714527 3.895123441547057 1.396334034949101 73.000000000000000
7.940942113177869 3.874772049888000 1.399462724249905 73.000000000000000
7.960860332302157 3.851859096537643 1.400714199970227 75.000000000000000
7.992737729545355 3.831193642841005 1.403842889271032 75.000000000000000
8.023239794688658 3.813147017099572 1.406971578571836 77.000000000000000
8.057946248126109 3.795217832886482 1.410726005732802 77.000000000000000
8.100444749762358 3.779020775145245 1.415731908614089 80.000000000000000
8.124344990228153 3.755695256064508 1.417609122194572 77.000000000000000
8.162548480535387 3.738829866409174 1.421989287215699 78.000000000000000
8.200732914668388 3.721743388252359 1.426369452236825 77.000000000000000
8.234000907068229 3.705690050716035 1.430123879397791 73.000000000000000
8.261962160476592 3.681918741962509 1.432626830838434 73.000000000000000
8.285606790379752 3.657843389452142 1.434504044418917 73.000000000000000
8.316423421851090 3.636813659156073 1.437632733719722 77.000000000000000
8.357437805088107 3.621782861833390 1.442638636601009 78.000000000000000
8.399702035866698 3.603588072458329 1.447644539482296 80.000000000000000
6.300978092489287 2.678501011407409 1.084403711658880 25.000000000000000
6.266594396183279 2.638095551712555 1.076894857336949 44.000000000000000
6.255253447716082 2.608935859593789 1.073453299106064 41.000000000000000
6.222328807971011 2.569742311292128 1.066257313714214 9.000000000000000
6.251373612170712 2.556230874630673 1.069698871945099 43.000000000000000
6.257038378105134 2.531819379200915 1.069073134084938 46.000000000000000
6.219559873877816 2.492684580578556 1.061251410832926 39.000000000000000
6.199273799455017 2.458221671518367 1.056245507951639 39.000000000000000
6.187165965182599 2.429708040637490 1.052803949720754 39.000000000000000
6.177616568195268 2.399861534343519 1.049675260419949 40.000000000000000
6.155628585342297 2.369089836358379 1.044669357538662 41.000000000000000
6.134732104718537 2.335268272465834 1.039663454657374 45.000000000000000
6.105473143419402 2.300979264781723 1.033406076055765 44.000000000000000
6.091257262539686 2.271371049275251 1.029651648894800 42.000000000000000
6.084322466783799 2.244625063013452 1.027148697454156 42.000000000000000
6.071708380112793 2.215923518529328 1.023707139223271 42.000000000000000
6.049678257070137 2.183983694309133 1.018701236341983 45.000000000000000
6.027499496520852 2.152224800145397 1.013695333460696 46.000000000000000
6.012253006987776 2.124327928016042 1.009940906299731 48.000000000000000
5.997619497698992 2.094462491910332 1.006186479138765 45.000000000000000
5.982487675727215 2.065777139707856 1.002432051977799 48.000000000000000
5.963490079486113 2.035946586434167 0.998051886956673 46.000000000000000
5.940614142605145 2.005010544159680 0.993045984075386 45.000000000000000
5.932931357362154 1.978224964286832 0.990543032634742 46.000000000000000
5.918822617885031 1.951734996674070 0.987101474403857 24.000000000000000
3.395715907428262 1.106612078464689 0.565667025585475 46.000000000000000
3.393917157041914 1.092935562666697 0.564728418795233 115.000000000000000
3.380770039236286 1.075691486223675 0.561912598424509 87.000000000000000
3.387901256706680 1.066251234473082 0.562538336284670 68.000000000000000
3.376695132073409 1.049137909311423 0.560035384844026 10.000000000000000
3.401109753859817 1.043719395633983 0.563476943074912 6.000000000000000
3.406802899728785 1.031819291484182 0.563789812004992 5.000000000000000
3.402635979839956 1.018250955761230 0.562538336284670 6.000000000000000
3.423395872508891 1.010807290061544 0.565354156655394 31.000000000000000
nan nan nan nan
3.439515395941795 0.990814439719441 0.566918501305797 116.000000000000000
3.435182182822834 0.977241109952827 0.565667025585475 116.000000000000000
3.430965001380495 0.963108636848699 0.564415549865153 113.000000000000000
3.440349475437726 0.951507311799460 0.565354156655394 110.000000000000000
3.443649895995929 0.939492454126002 0.565354156655394 53.000000000000000
nan nan nan nan
3.465238772793085 0.920086165702038 0.567857108096038 22.000000000000000
nan nan nan nan
3.460101398508905 0.892910449620164 0.565979894515555 110.000000000000000
3.476598141537490 0.884235398219394 0.568169977026118 116.000000000000000
3.487327975545182 0.874015331748863 0.569421452746440 116.000000000000000
3.482386107932029 0.861158447957262 0.568169977026118 116.000000000000000
3.485519020913927 0.848389080583527 0.568169977026118 120.000000000000000
3.486538258765744 0.835756707988358 0.567857108096038 110.000000000000000
3.493279459642045 0.824488854197875 0.568482845956199 80.000000000000000
3.503832682897658 0.814078210592812 0.569734321676521 107.000000000000000
3.508578673962352 0.802282923349429 0.570047190606601 116.000000000000000
3.507365600740615 0.789775760512793 0.569421452746440 120.000000000000000
3.512165416803583 0.777342194733253 0.569734321676521 122.000000000000000
3.518584078258926 0.766532117205862 0.570360059536682 118.000000000000000
3.531028098401802 0.755697720118440 0.571924404187084 120.000000000000000
3.537120458211308 0.746032974435252 0.572550142047245 120.000000000000000
3.530159378070103 0.731060862442243 0.570985797396843 103.000000000000000
nan nan nan nan
3.560359160037020 0.711429962266489 0.575053093487889 15.000000000000000
3.558822058263754 0.698858190709587 0.574427355627728 69.000000000000000
3.549601808318554 0.684188086145419 0.572550142047245 84.000000000000000
3.556202025001348 0.670665764795466 0.573175879907406 113.000000000000000
3.574060814648970 0.661122663602215 0.575678831348050 116.000000000000000
3.576120152066907 0.649891176366248 0.575678831348050 113.000000000000000
3.591980261043636 0.639829135526632 0.577868913858613 107.000000000000000
nan nan nan nan
3.588570998170144 0.613405674188763 0.576617438138291 4.000000000000000
3.592638606330564 0.601201517869992 0.576930307068371 4.000000000000000
3.604462362525373 0.590253348208027 0.578494651718774 9.000000000000000
nan nan nan nan
3.608495236585751 0.565075274163298 0.578494651718774 69.000000000000000
3.614254444178135 0.553704241551877 0.579120389578935 110.000000000000000
3.625933352817925 0.542546367009836 0.580684734229337 72.000000000000000
nan nan nan nan
3.643321996066177 0.519170281305465 0.582874816739900 3.000000000000000
3.647068624058839 0.506721397504057 0.583187685669981 3.000000000000000
3.644986223960841 0.492821472847645 0.582561947809820 3.000000000000000
3.656392597629791 0.482022454305549 0.584126292460222 4.000000000000000
3.665972199568942 0.469621869707552 0.585377768180544 28.000000000000000
nan nan nan nan
3.661239750384397 0.443707070781922 0.584126292460222 69.000000000000000
nan nan nan nan
3.683874559271686 0.420375805616476 0.587254981761027 4.000000000000000
3.691138435009824 0.408809681857473 0.588193588551268 5.000000000000000
3.692542959425869 0.395922713647040 0.588193588551268 4.000000000000000
3.697899041176913 0.382793001643534 0.588819326411429 3.000000000000000
3.693315983351960 0.369292982081464 0.587880719621188 4.000000000000000
3.706380051663301 0.357536701414047 0.589757933201670 4.000000000000000
3.701704808700633 0.344048412417500 0.588819326411429 5.000000000000000
nan nan nan nan
4.999044575138682 0.429448223696570 0.794687082404373 109.000000000000000
4.986732231482045 0.410860264150011 0.792496999893810 122.000000000000000
4.986166760391368 0.393295487156287 0.792184130963729 123.000000000000000
4.975559296213271 0.376734211615955 0.790306917383246 125.000000000000000
4.969025588882456 0.357927656117121 0.789055441662925 123.000000000000000
4.946536418682842 0.339823152928874 0.785301014501959 123.000000000000000
4.931922949053199 0.321526386273119 0.782798063061315 121.000000000000000
4.925128723456453 0.303822298720600 0.781546587340993 123.000000000000000
4.922215172953212 0.286399053761209 0.780920849480833 123.000000000000000
4.911350325299174 0.268568418744407 0.779043635900350 123.000000000000000
4.900464817631410 0.249961843438749 0.777166422319867 121.000000000000000
4.889427967917204 0.233145425349299 0.775289208739384 120.000000000000000
4.882355781825128 0.214875795615649 0.774037733019062 121.000000000000000
4.875146516676096 0.198362903465182 0.772786257298741 120.000000000000000
4.867944709171797 0.180200969090213 0.771534781578419 119.000000000000000
4.854667092834386 0.164438899799050 0.769344699067855 103.000000000000000
4.837466897110428 0.146107828278091 0.766528878697131 120.000000000000000
4.826076830967494 0.129746879088027 0.764651665116649 120.000000000000000
4.828475166451916 0.112946131442429 0.764964534046729 122.000000000000000
4.817006747685328 0.095014388898014 0.763087320466246 122.000000000000000
4.803483247674070 0.077974884328120 0.760897237955683 126.000000000000000
4.780023570135113 0.060905114847988 0.757142810794717 128.000000000000000
4.772305878448165 0.044146257922293 0.755891335074396 128.000000000000000
4.768475349155457 0.028297034497840 0.755265597214235 125.000000000000000
4.760645547658770 0.010801580648160 0.754014121493913 126.000000000000000
4.744851247074196 -0.005796932258732 0.751511170053269 128.000000000000000
4.728999266762703 -0.022285048991648 0.749008218612625 124.000000000000000
4.724948739198104 -0.037935134809748 0.748382480752464 125.000000000000000
4.724777963411620 -0.055252682855499 0.748382480752464 125.000000000000000
4.712717835495258 -0.070742413652480 0.746505267171982 121.000000000000000
4.700591955079606 -0.086973177735571 0.744628053591499 120.000000000000000
4.700259724418880 -0.103380775825596 0.744628053591499 120.000000000000000
4.693946016413810 -0.119636122092670 0.743689446801258 126.000000000000000
4.683674167771925 -0.134099302397696 0.742125102150855 121.000000000000000
4.675253821712699 -0.151009841468931 0.740873626430533 124.000000000000000
4.674668940199565 -0.168144489035909 0.740873626430533 61.000000000000000
nan nan nan nan
4.649733280099094 -0.198946500364085 0.737119199269568 13.000000000000000
4.654892618109920 -0.216262314747517 0.738057806059809 30.000000000000000
4.669933339388985 -0.232483053390139 0.740560757500453 122.000000000000000
4.649324277844818 -0.248543163723238 0.737432068199648 110.000000000000000
4.642557916575792 -0.263623543221447 0.736493461409407 113.000000000000000
4.639637617937298 -0.279708615308685 0.736180592479327 110.000000000000000
4.630747507463412 -0.295399247563754 0.734929116759005 110.000000000000000
4.621804484536418 -0.311031229555771 0.733677641038683 110.000000000000000
4.610781357407659 -0.327269606644841 0.732113296388280 116.000000000000000
4.593851529388595 -0.342188355265722 0.729610344947637 116.000000000000000
4.588752689845258 -0.357113699075571 0.728984607087476 120.000000000000000
4.583475287396515 -0.373608949897275 0.728358869227315 116.000000000000000
4.582143224686855 -0.389605988242295 0.728358869227315 113.000000000000000
4.561078545944431 -0.403856018711121 0.725230179926510 120.000000000000000
4.547984560828980 -0.417100612010612 0.723352966346028 116.000000000000000
4.542492368904965 -0.433391776162516 0.722727228485867 120.000000000000000
4.541108414441588 -0.447660274642440 0.722727228485867 116.000000000000000
4.531657485042365 -0.462706360914664 0.721475752765545 120.000000000000000
4.522156942110794 -0.477691931765484 0.720224277045223 113.000000000000000
4.500824828981830 -0.491330618685810 0.717095587744418 113.000000000000000
4.495244792888244 -0.505811433459110 0.716469849884257 113.000000000000000
4.495322873866332 -0.522512003405918 0.716782718814338 110.000000000000000
4.491604045664901 -0.537181581193482 0.716469849884257 116.000000000000000
4.471960271672758 -0.551464645049533 0.713654029513533 107.000000000000000
4.458348678425046 -0.564801580987389 0.711776815933050 110.000000000000000
4.456248631280284 -0.581138452103112 0.711776815933050 107.000000000000000
4.450484986430895 -0.594612083386279 0.711151078072890 107.000000000000000
4.448275731151767 -0.610919932398654 0.711151078072890 107.000000000000000
4.434488762887552 -0.624016023009052 0.709273864492407 107.000000000000000
4.420552733956113 -0.637798953112754 0.707396650911924 103.000000000000000
4.414277222637276 -0.653418302597745 0.706770913051763 107.000000000000000
4.411969473827132 -0.668823024784227 0.706770913051763 103.000000000000000
4.409607966561282 -0.684219597573220 0.706770913051763 103.000000000000000
4.387683244312424 -0.696510853134977 0.703642223750959 110.000000000000000
4.379499673695469 -0.710108607757718 0.702703616960717 113.000000000000000
4.371021362574304 -0.725185575159563 0.701765010170476 110.000000000000000
4.374564699276470 -0.739902235808553 0.702703616960717 113.000000000000000
4.371955307144752 -0.755167808529447 0.702703616960717 113.000000000000000
4.349838981409763 -0.766993974159968 0.699574927659912 116.000000000000000
4.335334015110953 -0.780830888983192 0.697697714079430 113.000000000000000
4.332859572563293 -0.794446866829353 0.697697714079430 120.000000000000000
4.330060038220013 -0.809566529186108 0.697697714079430 113.000000000000000
4.319302195066224 -0.823950960173931 0.696446238359108 116.000000000000000
4.308643421022719 -0.837515440142593 0.695194762638786 116.000000000000000
4.294067161201113 -0.850248193918698 0.693317549058303 113.000000000000000
4.290922003366735 -0.865981025883942 0.693317549058303 113.000000000000000
4.288026713853790 -0.880205474559245 0.693317549058303 116.000000000000000
4.277037552547368 -0.894298789127089 0.692066073337981 116.000000000000000
4.266319594443922 -0.906834223980442 0.690814597617660 113.000000000000000
4.251383074749103 -0.919958277647891 0.688937384037177 113.000000000000000
4.242846463422860 -0.931297788211080 0.687998777246935 110.000000000000000
4.245188223196232 -0.948134078341261 0.688937384037177 113.000000000000000
4.242020755803806 -0.962206416630920 0.688937384037177 120.000000000000000
4.225161864475020 -0.973902132060448 0.686747301526613 110.000000000000000
4.209852100793418 -0.987411895858010 0.684870087946131 110.000000000000000
4.177555760414493 -0.995234165333201 0.680177053994924 41.000000000000000
4.178248832056106 -1.009281058984126 0.680802791855085 37.000000000000000
4.174700328377482 -1.023859720297304 0.680802791855085 38.000000000000000
4.174753220111908 -1.040108989508010 0.681428529715246 107.000000000000000
4.151762791704773 -1.050557493861970 0.678299840414441 42.000000000000000
4.154182349180997 -1.065067200505226 0.679238447204683 35.000000000000000
4.161909845094451 -1.082545102034588 0.681115660785165 42.000000000000000
7.276827269462710 -1.921262054689063 1.192030623606559 43.000000000000000
7.265920480265410 -1.946897524955873 1.191404885746398 46.000000000000000
7.251798939137092 -1.968911122151904 1.190153410026076 46.000000000000000
7.229645631451064 -1.990018701385083 1.187650458585433 43.000000000000000
7.241682139986411 -2.020551608932859 1.190779147886237 46.000000000000000
7.223179958859714 -2.042592341249577 1.188901934305755 47.000000000000000
7.200814383402690 -2.063440250949268 1.186398982865111 43.000000000000000
7.179924538059183 -2.085960907614691 1.184208900354548 43.000000000000000
7.173703772529628 -2.107254959494758 1.184208900354548 44.000000000000000
7.169718602512412 -2.134661106797537 1.184834638214709 43.000000000000000
7.158064188359602 -2.159783867808275 1.184208900354548 44.000000000000000
7.134987608508866 -2.181384623748512 1.181705948913904 43.000000000000000
7.114888719439580 -2.199704714477423 1.179515866403341 42.000000000000000
7.106778609292981 -2.225767310254716 1.179515866403341 41.000000000000000
7.101241742428130 -2.249918636501740 1.179828735333421 43.000000000000000
7.082058648320328 -2.271073647892378 1.177951521752938 43.000000000000000
7.064293171592449 -2.293964950765603 1.176387177102536 42.000000000000000
7.050612720620260 -2.316760005347678 1.175448570312295 43.000000000000000
7.044357260627343 -2.341980320719526 1.175761439242375 42.000000000000000
7.030522378406812 -2.364666234179818 1.174822832452134 43.000000000000000
7.025965520426106 -2.390465470224222 1.175448570312295 43.000000000000000
6.998899758533194 -2.408548165719174 1.172319881011490 43.000000000000000
6.982562981708138 -2.431585695921069 1.171068405291168 44.000000000000000
6.977759063581609 -2.457256861931529 1.171694143151329 43.000000000000000
6.970004942342113 -2.479165976418561 1.171694143151329 43.000000000000000
6.961308574462641 -2.503480730107142 1.171694143151329 43.000000000000000
nan nan nan nan
nan nan nan nan
3.923551279207667 -1.458376191507737 0.662969262840499 56.000000000000000
3.931381032857225 -1.476925935781010 0.665159345351062 116.000000000000000
3.909839855593137 -1.483647316086967 0.662343524980338 122.000000000000000
3.900948299907248 -1.495871629405255 0.661717787120177 122.000000000000000
3.875179485598539 -1.502305015925705 0.658276228889291 120.000000000000000
3.882787035571315 -1.520865900697755 0.660466311399855 122.000000000000000
3.875350044669078 -1.534359626579987 0.660153442469774 120.000000000000000
3.871804629359677 -1.548611366216471 0.660466311399855 122.000000000000000
3.854097855784957 -1.555591888804093 0.658276228889291 115.000000000000000
3.844985939100482 -1.567544244915825 0.657650491029131 120.000000000000000
3.842591325219859 -1.583801854344280 0.658276228889291 116.000000000000000
3.840686790523677 -1.598723608167040 0.658901966749452 116.000000000000000
3.835645307428841 -1.610781572347042 0.658901966749452 116.000000000000000
3.822724809849752 -1.621075834070792 0.657650491029131 120.000000000000000
3.809494496168074 -1.631964465411787 0.656399015308809 120.000000000000000
3.807400764319191 -1.646820540795170 0.657024753168970 120.000000000000000
3.807640070969327 -1.661143373372656 0.657963359959211 122.000000000000000
3.792487760258189 -1.671105299193755 0.656399015308809 113.000000000000000
3.771899486971756 -1.678569092364067 0.653896063868165 48.000000000000000
3.773224896127263 -1.694963003907920 0.655147539588487 125.000000000000000
3.753189625717414 -1.700942878220345 0.652644588147843 123.000000000000000
3.746930148967981 -1.714687580965148 0.652644588147843 128.000000000000000
3.751984387635422 -1.732071120364969 0.654521801728326 126.000000000000000
3.735171929334093 -1.740152205950950 0.652644588147843 124.000000000000000
3.722229581824219 -1.749168360471537 0.651393112427521 123.000000000000000
3.716101167714879 -1.762150709896886 0.651393112427521 123.000000000000000
3.713491285299841 -1.776816786523493 0.652018850287682 125.000000000000000
3.710511520832814 -1.792133726965790 0.652644588147843 123.000000000000000
3.697444549715703 -1.800968299237838 0.651393112427521 124.000000000000000
3.680182470378845 -1.809278884489946 0.649515898847039 124.000000000000000
3.681241761574853 -1.824982442939105 0.650767374567360 126.000000000000000
3.678061340488660 -1.840230362939582 0.651393112427521 126.000000000000000
3.671938693466133 -1.852417135665780 0.651393112427521 125.000000000000000
3.658083035770493 -1.862278270191599 0.650141636707199 125.000000000000000
3.648372575297479 -1.872594630175513 0.649515898847039 126.000000000000000
3.645322264178134 -1.887134717635941 0.650141636707199 126.000000000000000
3.645384705699162 -1.904141108357419 0.651393112427521 125.000000000000000
3.635220399682912 -1.915012916386706 0.650767374567360 126.000000000000000
3.625024654735117 -1.925836988112501 0.650141636707199 126.000000000000000
3.618280144236357 -1.938478952695801 0.650141636707199 125.000000000000000
3.612172387534795 -1.949836530315006 0.650141636707199 126.000000000000000
3.611940985019580 -1.966841461281964 0.651393112427521 128.000000000000000
3.601590354260387 -1.977536028571225 0.650767374567360 125.000000000000000
3.591209114045735 -1.988182323484074 0.650141636707199 125.000000000000000
3.581146273605064 -1.998155265285831 0.649515898847039 124.000000000000000
3.573798614582795 -2.011267401304714 0.649515898847039 125.000000000000000
3.573982404659680 -2.027005573594144 0.650767374567360 126.000000000000000
3.570314758035591 -2.041429778766648 0.651393112427521 124.000000000000000
3.556321424679775 -2.049934090790066 0.650141636707199 126.000000000000000
3.545728229867355 -2.060350556838965 0.649515898847039 125.000000000000000
3.541923636153796 -2.074711740911193 0.650141636707199 125.000000000000000
3.537697279071426 -2.089688920832319 0.650767374567360 125.000000000000000
3.530748169429612 -2.101408857949389 0.650767374567360 128.000000000000000
3.516247362498445 -2.110269552182292 0.649515898847039 124.000000000000000
3.506219296177857 -2.119262089993702 0.648890160986878 121.000000000000000
3.498428261723487 -2.132098791460848 0.648890160986878 123.000000000000000
3.497697349354459 -2.148433174324599 0.650141636707199 125.000000000000000
3.496517066811453 -2.165398673357454 0.651393112427521 128.000000000000000
3.482613341714577 -2.172799154162968 0.650141636707199 125.000000000000000
3.468318501135547 -2.180736649312633 0.648890160986878 125.000000000000000
3.467359596413654 -2.197059234835925 0.650141636707199 124.000000000000000
3.471323628076211 -2.216590985559179 0.652331719217763 53.000000000000000
3.481838138622530 -2.240452763398029 0.655773277448648 118.000000000000000
3.460736758652843 -2.243995313824521 0.653270326008004 113.000000000000000
3.456978086020210 -2.257016271636909 0.653896063868165 113.000000000000000
3.445382313364400 -2.267499635261972 0.653270326008004 116.000000000000000
3.443632753626479 -2.284480393702959 0.654521801728326 116.000000000000000
3.438921997348483 -2.298682491672974 0.655147539588487 113.000000000000000
3.428003133501214 -2.307867354890262 0.654521801728326 116.000000000000000
3.416252210685531 -2.318197741920207 0.653896063868165 116.000000000000000
3.415476842219070 -2.333376018055471 0.655147539588487 116.000000000000000
3.410565387951877 -2.347524045263206 0.655773277448648 116.000000000000000
3.405596738876454 -2.361666188278031 0.656399015308809 120.000000000000000
3.394093598463463 -2.371276882494663 0.655773277448648 120.000000000000000
3.382564898467049 -2.380836073531682 0.655147539588487 116.000000000000000
3.377038342830246 -2.395503587899340 0.655773277448648 120.000000000000000
3.375084633402785 -2.411871097528150 0.657024753168970 116.000000000000000
3.369427939856991 -2.426533986936966 0.657650491029131 120.000000000000000
3.355815325234118 -2.431884009492530 0.656399015308809 116.000000000000000
3.346879484399623 -2.444167353027723 0.656399015308809 116.000000000000000
3.337898682880795 -2.456417862564161 0.656399015308809 116.000000000000000
3.332046418864023 -2.470988696100954 0.657024753168970 116.000000000000000
3.333765054861331 -2.488534258795552 0.658901966749452 116.000000000000000
3.315585038680957 -2.493033157621104 0.657024753168970 116.000000000000000
3.306862529282425 -2.504591520817535 0.657024753168970 116.000000000000000
3.304381821525286 -2.520911974673556 0.658276228889291 116.000000000000000
3.297809702266238 -2.535989622583729 0.658901966749452 120.000000000000000
3.288937355115925 -2.547485676571463 0.658901966749452 113.000000000000000
3.280471504491372 -2.558378178931687 0.658901966749452 116.000000000000000
3.267966113752042 -2.567943512978365 0.658276228889291 113.000000000000000
3.262981315482135 -2.580648200167581 0.658901966749452 116.000000000000000
3.263223815193483 -2.599407087548349 0.660779180329935 120.000000000000000
3.260749916847893 -2.615157622443842 0.662030656050257 120.000000000000000
3.244997155232427 -2.622125156695607 0.660779180329935 120.000000000000000
3.235364790081082 -2.634001053520309 0.660779180329935 120.000000000000000
3.229205766576841 -2.647783535582323 0.661404918190096 116.000000000000000
3.230013134083417 -2.665459053769632 0.663282131770579 120.000000000000000
3.223727653421046 -2.679242870142759 0.663907869630740 116.000000000000000
3.204798753189572 -2.683431452823834 0.662030656050257 116.000000000000000
3.194941959235083 -2.695159603357240 0.662030656050257 120.000000000000000
3.192482665357872 -2.710297261383587 0.663282131770579 116.000000000000000
3.194537023700442 -2.732251713730006 0.665785083211223 120.000000000000000
3.191926256121053 -2.747428798810591 0.667036558931544 113.000000000000000
3.169895643340388 -2.748756208696356 0.664533607490901 116.000000000000000
3.160763010111000 -2.759252847861026 0.664533607490901 116.000000000000000
3.153595306239919 -2.773428147573630 0.665159345351062 120.000000000000000
3.156213048939512 -2.794346121572411 0.667662296791705 116.000000000000000
3.149388597693819 -2.807975527574504 0.668288034651866 116.000000000000000
3.132706058422086 -2.814766594333237 0.667036558931544 120.000000000000000
3.122861603908703 -2.825684630648214 0.667036558931544 116.000000000000000
3.118819584425346 -2.841890128514131 0.668288034651866 116.000000000000000
3.114702409372518 -2.858101773047909 0.669539510372188 116.000000000000000
3.108610593080511 -2.870553033937765 0.670165248232349 113.000000000000000
3.102407641990639 -2.885963693238690 0.671103855022590 58.000000000000000
3.087989931940457 -2.892724100272276 0.670165248232349 116.000000000000000
3.077873627374585 -2.903485573233263 0.670165248232349 116.000000000000000
3.080198086931157 -2.924020731529504 0.672668199672993 113.000000000000000
3.072315638038546 -2.938021084666498 0.673293937533154 113.000000000000000
3.065402157949059 -2.950933052639287 0.673919675393315 113.000000000000000
3.049409483863697 -2.956115575019156 0.672668199672993 113.000000000000000
3.043312702574361 -2.970881630869184 0.673606806463234 110.000000000000000
3.041376029296920 -2.989795509242009 0.675484020043717 110.000000000000000
3.034776994947926 -3.002113952900855 0.676109757903878 103.000000000000000
3.020954837248339 -3.010428077528418 0.675484020043717 107.000000000000000
3.008166074893948 -3.017631383192023 0.674858282183556 107.000000000000000
3.004033045173217 -3.035657077703998 0.676422626833958 62.000000000000000
2.997572002350461 -3.050351430558085 0.677361233624200 107.000000000000000
2.993268703848727 -3.068387610085183 0.678925578274602 113.000000000000000
2.982239387077467 -3.076357753721096 0.678612709344522 110.000000000000000
2.972313670927517 -3.088690904053347 0.678925578274602 113.000000000000000
2.964784864477773 -3.101386257160341 0.679551316134763 113.000000000000000
2.959380982236374 -3.117446994028929 0.680802791855085 113.000000000000000
2.953354088553036 -3.134023229605876 0.682054267575407 113.000000000000000
2.942396313087492 -3.144313265692734 0.682054267575407 116.000000000000000
2.928713325189559 -3.151670892994261 0.681428529715246 116.000000000000000
2.925731822790683 -3.170585208173560 0.683305743295728 116.000000000000000
2.921096927843863 -3.185584742560486 0.684557219016050 116.000000000000000
2.912060972059556 -3.199191336980944 0.685182956876211 120.000000000000000
2.903525170817768 -3.212267737386105 0.685808694736372 116.000000000000000
2.887016664817517 -3.216503099790042 0.684557219016050 116.000000000000000
2.886851244641204 -3.237854569539150 0.687060170456694 120.000000000000000
2.893293077404294 -3.269123036950233 0.691440335477820 124.000000000000000
2.872002207650259 -3.266830972077993 0.688937384037177 120.000000000000000
2.863179508797414 -3.279812464352467 0.689563121897338 120.000000000000000
2.854301144998517 -3.292772131734414 0.690188859757499 120.000000000000000
2.845367161244742 -3.305709743675085 0.690814597617660 120.000000000000000
2.842794747358125 -3.326133271189451 0.693004680128223 122.000000000000000
2.836974346854710 -3.344061964902320 0.694569024778625 120.000000000000000
2.824596524950588 -3.351940760410820 0.694256155848544 122.000000000000000
2.812292075642306 -3.362270909868195 0.694256155848544 122.000000000000000
2.799864583070318 -3.370058906163107 0.693943286918464 120.000000000000000
2.800061494520699 -3.395538585684498 0.697071976219269 124.000000000000000
2.793197524348675 -3.411405567569417 0.698323451939591 123.000000000000000
2.775692047394282 -3.415488298618794 0.697071976219269 120.000000000000000
2.770510960069754 -3.429855591217296 0.698323451939591 123.000000000000000
2.768408825271363 -3.451833560368281 0.700826403380234 124.000000000000000
2.762514184661421 -3.471712402583885 0.702703616960717 120.000000000000000
2.755277087045289 -3.487534286726320 0.703955092681039 115.000000000000000
2.743696857137930 -3.496651939158354 0.703955092681039 113.000000000000000
2.731474548557788 -3.506207925675467 0.703955092681039 116.000000000000000
2.723458968873932 -3.519933538762605 0.704893699471280 110.000000000000000
2.720164115407173 -3.542425886808319 0.707396650911924 107.000000000000000
2.712572584461600 -3.558183217127517 0.708648126632246 103.000000000000000
2.697751455491540 -3.564479959459829 0.708022388772085 110.000000000000000
2.688290146967942 -3.576564541335119 0.708648126632246 107.000000000000000
2.679887676134289 -3.592727181109530 0.709899602352568 110.000000000000000
2.676189840875185 -3.612705387422005 0.712089684863131 113.000000000000000
2.670584536098549 -3.631573419811047 0.713966898443614 120.000000000000000
2.657891709086302 -3.640873374713423 0.713966898443614 113.000000000000000
2.645166496502362 -3.650128966722715 0.713966898443614 116.000000000000000
2.639330374311078 -3.668961485559556 0.715844112024097 120.000000000000000
2.632751240575986 -3.688257177044195 0.717721325604579 120.000000000000000
2.624428977473281 -3.703871846210877 0.718972801324901 116.000000000000000
2.610835980740354 -3.713465981078403 0.718972801324901 120.000000000000000
2.601419022033834 -3.724888859308860 0.719598539185062 120.000000000000000
2.600125340231021 -3.752258684128435 0.723040097415947 122.000000000000000
2.588787823580764 -3.762487752878190 0.723352966346028 120.000000000000000
2.583890194392410 -3.785002595763551 0.725855917786671 120.000000000000000
2.572432795879175 -3.795185424176739 0.726168786716752 122.000000000000000
2.560272069383294 -3.805780778597793 0.726481655646832 124.000000000000000
2.544112787991340 -3.811853001965448 0.725855917786671 121.000000000000000
2.539518305338337 -3.833885253169350 0.728358869227315 123.000000000000000
2.534127876099640 -3.856374062077569 0.730861820667959 121.000000000000000
2.524967363274961 -3.871814811641665 0.732113296388280 121.000000000000000
2.512791258110810 -3.879728110887847 0.732113296388280 120.000000000000000
2.504961015708183 -3.898883460820293 0.733990509968763 120.000000000000000
2.498769765769961 -3.919263169644357 0.736180592479327 110.000000000000000
2.491410540550441 -3.937977678117074 0.738057806059809 107.000000000000000
2.478338037356593 -3.946217840857959 0.738057806059809 107.000000000000000
2.465946679609000 -3.958628246661612 0.738683543919970 110.000000000000000
2.461116911085854 -3.980224884232332 0.741186495360614 107.000000000000000
2.453406418868344 -3.998894005635848 0.743063708941097 107.000000000000000
2.441486985995165 -4.010808310544484 0.743689446801258 107.000000000000000
2.429514244703869 -4.022688086424727 0.744315184661418 110.000000000000000
2.421549590064055 -4.041310986260103 0.746192398241901 23.000000000000000
2.409748501996508 -4.055253804442484 0.747131005032143 17.000000000000000
3.577372320793945 -6.065907993453238 1.115377735736846 7.000000000000000
3.670794004743358 -6.276780254344109 1.151670531626180 8.000000000000000
3.584515825607578 -6.176158788542544 1.131021182240869 9.000000000000000
3.512590057835805 -6.103650022094616 1.115377735736846 6.000000000000000
3.484578336874667 -6.099218294065285 1.112561915366122 2.000000000000000
3.679317906835896 -6.495234832004670 1.182331686774065 9.000000000000000
3.653887033427166 -6.500512216895687 1.181080211053743 8.000000000000000
3.616745245558392 -6.487346687073191 1.176387177102536 15.000000000000000
3.572876665892311 -6.464252832432507 1.169816929570846 5.000000000000000
3.499015857535474 -6.383146471270373 1.152922007346502 9.000000000000000
3.528604442876969 -6.490773986233776 1.170129798500927 12.000000000000000
3.498426609238023 -6.489141299571109 1.167626847060283 11.000000000000000
3.485273385288281 -6.516383766481081 1.170442667431007 9.000000000000000
3.633463032491589 -6.853737320781989 1.228636288425973 9.000000000000000
3.585618890071078 -6.820917591103947 1.220501696243881 9.000000000000000
3.527091898820375 -6.766827479292663 1.208612676900824 9.000000000000000
3.503725666225693 -6.776731810385386 1.208299807970743 9.000000000000000
3.464451473999851 -6.761399541683278 1.203293905089456 9.000000000000000
3.427358885570005 -6.738195715085505 1.197349395417927 9.000000000000000
2.244011256723964 -4.450104172929852 0.789368310593005 3.000000000000000
nan nan nan nan
2.205095576936124 -4.451886836291189 0.786865359152361 11.000000000000000
2.192153937563476 -4.464876484883995 0.787803965942603 15.000000000000000
2.178366888141823 -4.478210228942594 0.788742572732844 22.000000000000000
2.163504630471320 -4.485409331141132 0.788742572732844 13.000000000000000
2.164083573707225 -4.528955880044403 0.794999951334453 14.000000000000000
2.165122383618941 -4.570025496026918 0.800944461005982 111.000000000000000
2.149197062422787 -4.579718624336761 0.801257329936062 42.000000000000000
2.138133190615144 -4.593611441560318 0.802508805656384 45.000000000000000
2.127898487062272 -4.615768635849684 0.805011757097028 44.000000000000000
2.119958111967860 -4.636802950201462 0.807514708537672 46.000000000000000
2.108650302604910 -4.654970957775580 0.809391922118155 44.000000000000000
2.096425783698034 -4.673482355044135 0.811269135698637 47.000000000000000
2.080099513758086 -4.680771774219093 0.811269135698637 46.000000000000000
2.073298602195722 -4.709699512507874 0.815023562859603 47.000000000000000
2.063162661438169 -4.731393688001820 0.817526514300246 47.000000000000000
2.056864258633137 -4.759969226449908 0.821280941461212 46.000000000000000
2.040181199640293 -4.769292220378303 0.821593810391293 48.000000000000000
2.025832548104708 -4.781841372287991 0.822532417181534 45.000000000000000
2.016770642185769 -4.807099324338948 0.825661106482339 46.000000000000000
2.009072703187094 -4.836000490680259 0.829415533643304 45.000000000000000
1.997343688594976 -4.857947490844817 0.831918485083948 44.000000000000000
1.987395534110695 -4.874827558374302 0.833795698664431 45.000000000000000
1.973324501529526 -4.889062346525690 0.835047174384752 43.000000000000000
1.961252985198485 -4.910938048354907 0.837550125825396 42.000000000000000
1.949908446807306 -4.932450494069392 0.840053077266040 41.000000000000000
1.937861892579794 -4.949926127796470 0.841930290846522 44.000000000000000
1.925413532843018 -4.971732014787739 0.844433242287166 42.000000000000000
1.909461111145542 -4.982111759595041 0.845058980147327 42.000000000000000
1.899590101017148 -5.011242285869977 0.848813407308293 44.000000000000000
1.890781213850908 -5.035678411631722 0.851942096609097 45.000000000000000
1.880562928580738 -5.064796790677359 0.855696523770063 45.000000000000000
1.864234277920739 -5.075038792094288 0.856322261630224 43.000000000000000
1.849666744460225 -5.092977772893376 0.858199475210706 43.000000000000000
1.839005470901134 -5.113634149091248 0.860702426651350 42.000000000000000
1.831736250133556 -5.149800714408712 0.865708329532638 41.000000000000000
1.817026396056963 -5.165480537631291 0.867272674183040 38.000000000000000
1.800931387012185 -5.177388850652914 0.868211280973281 36.000000000000000
1.785417826329891 -5.191115650815942 0.869462756693603 36.000000000000000
1.774281950626666 -5.217888616736337 0.872904314924488 39.000000000000000
1.765498479147042 -5.252136518920262 0.877597348875695 42.000000000000000
1.748726754919171 -5.266070971809635 0.878848824596017 41.000000000000000
1.741115403770122 -5.301869290304168 0.883854727477304 102.000000000000000
1.718329434782040 -5.294762261648517 0.881664644966741 24.000000000000000
1.698951317122982 -5.294788576300665 0.880726038176500 11.000000000000000
1.687289818092528 -5.325460527071532 0.884793334267546 10.000000000000000
nan nan nan nan
1.663031737157689 -5.372387507857288 0.890737843939075 47.000000000000000
1.645423561837310 -5.381937965751061 0.891363581799236 45.000000000000000
1.633478428038777 -5.410341576570476 0.895118008960201 44.000000000000000
1.623612334073044 -5.446299287771199 0.900123911841489 42.000000000000000
1.608098943649477 -5.467374372869934 0.902626863282132 44.000000000000000
1.592017660286429 -5.476193067073678 0.903252601142293 46.000000000000000
1.575202641686938 -5.493384444595373 0.905129814722776 45.000000000000000
1.563547539538037 -5.525459862160868 0.909509979743902 45.000000000000000
1.548594073372874 -5.550180452532937 0.912638669044707 46.000000000000000
1.549065138077153 -5.623845515641881 0.923901950527603 41.000000000000000
1.531547847120791 -5.640923517588499 0.925779164108086 36.000000000000000
1.515901040308342 -5.657419701677242 0.927656377688569 35.000000000000000
1.490088505709851 -5.639758632331943 0.923901950527603 28.000000000000000
1.461943774012494 -5.616507043466835 0.919208916576397 27.000000000000000
1.437911298753257 -5.604355341173891 0.916393096205673 26.000000000000000
1.416418360613770 -5.593525527877527 0.913890144765029 26.000000000000000
1.389233141250254 -5.567769815115148 0.908884241883741 26.000000000000000
1.366460946374817 -5.563232431430214 0.907319897233339 26.000000000000000
1.343740706254271 -5.558603043330263 0.905755552582937 26.000000000000000
1.321180221320891 -5.545734095932028 0.902939732212213 25.000000000000000
1.295949920877139 -5.525310683224984 0.898872436121167 24.000000000000000
1.272799824977966 -5.504335052203103 0.894805140030121 25.000000000000000
1.247361144182227 -5.485848594618683 0.891050712869155 26.000000000000000
1.226048102016854 -5.480530636014535 0.889486368218753 26.000000000000000
1.203938371352022 -5.471272402225527 0.887296285708189 26.000000000000000
1.178565986033018 -5.446481223372943 0.882603251756983 27.000000000000000
1.155025585943694 -5.429308483817415 0.879161693526098 28.000000000000000
1.134318516419530 -5.415509524865721 0.876345873155373 26.000000000000000
1.112074782375099 -5.408021287109239 0.874468659574891 26.000000000000000
1.092569176771496 -5.403934524380356 0.873217183854569 27.000000000000000
1.068527441758056 -5.386588852630291 0.869775625623684 26.000000000000000
1.045942263072920 -5.370896374915464 0.866646936322879 26.000000000000000
1.024767969054276 -5.366932578891677 0.865395460602557 25.000000000000000
1.004416588053315 -5.356710538462611 0.863205378091994 27.000000000000000
0.983348786349659 -5.352584481778022 0.861953902371672 27.000000000000000
0.962669224551180 -5.334263634191688 0.858512344140787 28.000000000000000
0.940946952789939 -5.320084801132700 0.855696523770063 27.000000000000000
0.919757010423767 -5.313765638637880 0.854132179119661 29.000000000000000
0.898892126727241 -5.303310627196287 0.851942096609097 27.000000000000000
0.880051331067466 -5.304467297782995 0.851629227679017 28.000000000000000
0.856149317521213 -5.274359388437335 0.846310455867649 27.000000000000000
0.835540303972690 -5.251662104538596 0.842243159776603 28.000000000000000
0.814467027522681 -5.242977449651321 0.840365946196120 26.000000000000000
0.793764731937368 -5.236162089123745 0.838801601545718 27.000000000000000
0.772879019274533 -5.221314182774148 0.835985781174994 26.000000000000000
0.752167033204466 -5.200388036248484 0.832231354014028 26.000000000000000
0.730069982877181 -5.181593316201828 0.828789795783143 27.000000000000000
0.712440673283609 -5.174076762094803 0.827225451132741 28.000000000000000
0.693324942142562 -5.168700757109510 0.825973975412419 28.000000000000000
0.672077040651995 -5.153578087427880 0.823158155041695 28.000000000000000
0.652343356250427 -5.142174984327201 0.820968072531132 29.000000000000000
0.631656103791608 -5.114902699752377 0.816275038579925 28.000000000000000
0.612200047212488 -5.111299404768761 0.815336431789683 30.000000000000000
0.594104931271509 -5.103490797565119 0.813772087139281 29.000000000000000
0.574510828101065 -5.097782220183007 0.812520611418959 29.000000000000000
0.554811579486531 -5.074131585621619 0.808453315327913 27.000000000000000
0.535172672468804 -5.066308754866959 0.806888970677511 27.000000000000000
0.516761274908302 -5.052334600638741 0.804386019236867 27.000000000000000
0.497464902600495 -5.046331298645696 0.803134543516545 27.000000000000000
0.479604296091811 -5.036154327499705 0.801257329936062 26.000000000000000
0.460578660234906 -5.022060806140305 0.798754378495419 27.000000000000000
0.442705195578486 -5.009786565530509 0.796564295984856 28.000000000000000
0.425215079901995 -5.011301373713827 0.796564295984856 30.000000000000000
0.404694344389482 -4.997145692164660 0.794061344544212 31.000000000000000
0.386333103881793 -4.986711043914045 0.792184130963729 30.000000000000000
0.369347478743961 -4.970170631897564 0.789368310593005 29.000000000000000
0.349458359993012 -4.947845357404557 0.785613883432039 28.000000000000000
0.333048792074432 -4.948976998153921 0.785613883432039 29.000000000000000
0.315268588183198 -4.942223925589942 0.784362407711718 28.000000000000000
0.297064101001448 -4.927519935072380 0.781859456271074 35.000000000000000
0.278555260701746 -4.920686755670987 0.780607980550752 35.000000000000000
0.262040628702693 -4.901811977278054 0.777479291249947 34.000000000000000
0.244632826997359 -4.896778057594007 0.776540684459706 36.000000000000000
0.226592264040867 -4.895668526797432 0.776227815529625 34.000000000000000
0.209248483829456 -4.890508942311357 0.775289208739384 36.000000000000000
0.193335796064413 -4.877325395232963 0.773099126228821 35.000000000000000
0.174890150547062 -4.862208445824125 0.770596174788177 36.000000000000000
0.157131862069023 -4.864791138809160 0.770909043718258 37.000000000000000
0.138961250123751 -4.853486974866524 0.769031830137775 37.000000000000000
0.124458723087469 -4.849928463760892 0.768406092277614 37.000000000000000
0.106247637676223 -4.830603061314529 0.765277402976809 38.000000000000000
0.089933091991534 -4.815128573054779 0.762774451536166 38.000000000000000
0.072165563633757 -4.807525235371106 0.761522975815844 38.000000000000000
0.056084244972054 -4.795886661857614 0.759645762235361 38.000000000000000
0.039375542578148 -4.800003834664008 0.760271500095522 38.000000000000000
0.021710673020669 -4.784313061803802 0.757768548654878 38.000000000000000
0.004989485499308 -4.764605942542208 0.754639859354074 37.000000000000000
-0.011632469872693 -4.760643589918534 0.754014121493913 37.000000000000000
-0.028273590393035 -4.764524665353339 0.754639859354074 38.000000000000000
-0.044830244062674 -4.756495789194290 0.753388383633752 37.000000000000000
-0.062030659576971 -4.738522662660717 0.750572563263028 36.000000000000000
-0.076692402677986 -4.724478588995219 0.748382480752464 37.000000000000000
-0.093144487025483 -4.722207106894473 0.748069611822384 34.000000000000000
-0.108757872574676 -4.719897411873708 0.747756742892304 35.000000000000000
-0.125898201048078 -4.713543074435822 0.746818136102062 34.000000000000000
-0.141814047202160 -4.695304604623917 0.744002315731338 32.000000000000000
-0.157737161031752 -4.680961183205182 0.741812233220775 33.000000000000000
-0.173112772009212 -4.676464321179233 0.741186495360614 33.000000000000000
-0.188875873464503 -4.662015251607161 0.738996412850051 32.000000000000000
-0.205148192903865 -4.661327549179851 0.738996412850051 32.000000000000000
-0.221196487084824 -4.638839851724514 0.735554854619166 33.000000000000000
-0.236175703120266 -4.630189584130804 0.734303378898844 33.000000000000000
-0.252497457140827 -4.617458277721029 0.732426165318361 34.000000000000000
-0.267922511286944 -4.618567638958464 0.732739034248441 35.000000000000000
-0.284240477225797 -4.607696487877394 0.731174689598039 34.000000000000000
-0.298621440594727 -4.592930075436230 0.728984607087476 35.000000000000000
-0.314641038807451 -4.579980333473674 0.727107393506993 37.000000000000000
-0.329401304459889 -4.573000948372791 0.726168786716752 36.000000000000000
-0.345659647496890 -4.575762791834531 0.726794524576913 36.000000000000000
-0.361804265332292 -4.566588328045702 0.725543048856591 36.000000000000000
-0.376602197539984 -4.551517029616219 0.723352966346028 37.000000000000000
-0.391469095913150 -4.538366301337557 0.721475752765545 38.000000000000000
-0.407131935794951 -4.535004705822693 0.721162883835464 36.000000000000000
-0.421559850709220 -4.535670185368575 0.721475752765545 38.000000000000000
-0.437421010181880 -4.526229761137425 0.720224277045223 30.000000000000000
-0.342576492475542 -3.414084917401824 0.543453331549762 53.000000000000000
-0.353267289061748 -3.401079465540946 0.541576117969279 65.000000000000000
-0.363950334446414 -3.399952861805832 0.541576117969279 65.000000000000000
-0.375756984175379 -3.392705965796264 0.540637511179038 69.000000000000000
-0.385437805788999 -3.377702779172388 0.538447428668475 71.000000000000000
-0.397687462683628 -3.380260463803500 0.539073166528636 73.000000000000000
-0.407107773031298 -3.359241399254672 0.535944477227831 73.000000000000000
-0.418586731940056 -3.355839675556046 0.535631608297750 66.000000000000000
-0.432057645322383 -3.368073339464948 0.537821690808314 73.000000000000000
-0.441814128991236 -3.346883276955235 0.534693001507509 70.000000000000000
-0.453175379491495 -3.347357285086260 0.535005870437590 77.000000000000000
-0.462719136091866 -3.326108486697387 0.531877181136785 68.000000000000000
-0.475139736782512 -3.334333871869475 0.533441525787187 73.000000000000000
-0.485356608737722 -3.318887896023474 0.531251443276624 65.000000000000000
-0.496659987896850 -3.327201856298774 0.532815787927026 65.000000000000000
-0.506759876671543 -3.311690623857718 0.530625705416463 69.000000000000000
-0.517364666268025 -3.300053314515046 0.529061360766061 70.000000000000000
-0.529506374442433 -3.302128189058348 0.529687098626222 81.000000000000000
-0.540006178322379 -3.290418770324935 0.528122753975819 68.000000000000000
-0.553122149617205 -3.298254608903287 0.529687098626222 73.000000000000000
-0.560818535544255 -3.280923565879921 0.527184147185578 71.000000000000000
-0.569890306185731 -3.265324221416847 0.524994064675015 69.000000000000000
-0.581407529884623 -3.267306093309340 0.525619802535176 68.000000000000000
-0.592319294981629 -3.259322551639241 0.524681195744934 65.000000000000000
-0.604772796669961 -3.263062010993796 0.525619802535176 69.000000000000000
-0.613591993696205 -3.247343867450269 0.523429720024613 71.000000000000000
-0.623610807935260 -3.241411661060551 0.522803982164452 70.000000000000000
