# This PCD file was generated using the MATLABÂ® pcwrite function
# from Computer Vision ToolboxÂ®.
# .PCD v.7 - Point Cloud Data file format
VERSION .7
FIELDS x y z intensity
SIZE 8 8 8 8
TYPE F F F F
COUNT 1 1 1 1
WIDTH 713
HEIGHT 1
VIEWPOINT 0 0 0 1 0 0 0
POINTS 713
DATA ascii
nan nan nan nan
nan nan nan nan
nan nan nan nan
nan nan nan nan
nan nan nan nan
nan nan nan nan
nan nan nan nan
nan nan nan nan
nan nan nan nan
nan nan nan nan
nan nan nan nan
nan nan nan nan
nan nan nan nan
nan nan nan nan
nan nan nan nan
nan nan nan nan
nan nan nan nan
nan nan nan nan
nan nan nan nan
nan nan nan nan
nan nan nan nan
nan nan nan nan
nan nan nan nan
nan nan nan nan
nan nan nan nan
nan nan nan nan
nan nan nan nan
nan nan nan nan
nan nan nan nan
nan nan nan nan
nan nan nan nan
nan nan nan nan
nan nan nan nan
nan nan nan nan
nan nan nan nan
nan nan nan nan
nan nan nan nan
nan nan nan nan
nan nan nan nan
nan nan nan nan
nan nan nan nan
nan nan nan nan
nan nan nan nan
nan nan nan nan
nan nan nan nan
nan nan nan nan
nan nan nan nan
nan nan nan nan
nan nan nan nan
nan nan nan nan
nan nan nan nan
nan nan nan nan
nan nan nan nan
nan nan nan nan
nan nan nan nan
nan nan nan nan
nan nan nan nan
nan nan nan nan
nan nan nan nan
nan nan nan nan
nan nan nan nan
nan nan nan nan
nan nan nan nan
nan nan nan nan
nan nan nan nan
nan nan nan nan
nan nan nan nan
nan nan nan nan
nan nan nan nan
nan nan nan nan
nan nan nan nan
nan nan nan nan
nan nan nan nan
nan nan nan nan
nan nan nan nan
nan nan nan nan
nan nan nan nan
nan nan nan nan
nan nan nan nan
nan nan nan nan
nan nan nan nan
nan nan nan nan
nan nan nan nan
nan nan nan nan
nan nan nan nan
nan nan nan nan
nan nan nan nan
nan nan nan nan
0.964147225463746 3.032031186209893 -0.166742356590019 1.000000000000000
0.950957665165854 2.956566781109137 -0.162764823915555 1.000000000000000
0.966217667538197 2.968422769645340 -0.163602199215442 1.000000000000000
0.980322352800696 2.976414036374425 -0.164230230690358 1.000000000000000
0.983128902839179 2.950236089036183 -0.162974167740527 2.000000000000000
0.992906832690390 2.946959694710130 -0.162974167740527 5.000000000000000
1.000610360497126 2.935913933063831 -0.162555480090584 7.000000000000000
1.009550710358903 2.928626827585492 -0.162346136265612 7.000000000000000
1.019109884962508 2.923199060894802 -0.162241464353126 8.000000000000000
1.027823905567159 2.913793664714351 -0.161927448615668 12.000000000000000
1.034633837859372 2.900782229260459 -0.161404089053239 13.000000000000000
1.038326790482256 2.882485005442572 -0.160566713753352 16.000000000000000
1.049749075779487 2.882596388190633 -0.160776057578323 18.000000000000000
1.058236356104566 2.873106985085448 -0.160462041840866 20.000000000000000
1.068955766020097 2.871267298724874 -0.160566713753352 31.000000000000000
1.075159952660229 2.860416697953435 -0.160148026103408 31.000000000000000
1.081591917006131 2.847310817402744 -0.159624666540979 47.000000000000000
1.087229775287686 2.832330398411449 -0.158996635066063 42.000000000000000
1.099998861434845 2.835966371402417 -0.159415322716007 53.000000000000000
1.110620283359986 2.833968940814827 -0.159519994628493 52.000000000000000
1.120505914775110 2.830074887042341 -0.159519994628493 62.000000000000000
1.122470679297102 2.807798033169311 -0.158473275503634 63.000000000000000
1.133012748199880 2.805714730155196 -0.158577947416120 66.000000000000000
1.143553940771949 2.803592019333048 -0.158682619328606 67.000000000000000
1.156376432174144 2.806969953745482 -0.159101306978549 75.000000000000000
1.156960954926507 2.780788058754759 -0.157845244028719 78.000000000000000
1.170528906386623 2.785939242824568 -0.158368603591148 82.000000000000000
1.177716544816796 2.778570385758655 -0.158159259766176 86.000000000000000
1.188194233160725 2.776278622943527 -0.158263931678662 92.000000000000000
1.200254757272688 2.777614363484890 -0.158577947416120 100.000000000000000
1.204352632115887 2.760593344999051 -0.157845244028719 100.000000000000000
1.212371508729614 2.752716884786307 -0.157635900203747 100.000000000000000
1.224407106596524 2.753943184121650 -0.157949915941204 100.000000000000000
1.235985130537856 2.755334695643876 -0.158263931678662 100.000000000000000
1.245595513448239 2.751003515956900 -0.158263931678662 100.000000000000000
1.254487827213340 2.742567964268516 -0.158054587853690 100.000000000000000
1.257356560828749 2.723665402911619 -0.157217212553803 100.000000000000000
1.269278246135286 2.726944747671776 -0.157635900203747 100.000000000000000
1.278789326800549 2.722497526285002 -0.157635900203747 100.000000000000000
1.291706565066635 2.725236301134665 -0.158054587853690 100.000000000000000
1.293455979996603 2.704494643622771 -0.157112540641317 100.000000000000000
1.297680465738624 2.689170505421949 -0.156484509166402 100.000000000000000
1.316676676978896 2.704377460944897 -0.157635900203747 103.000000000000000
1.319475814703789 2.687446550396972 -0.156903196816346 100.000000000000000
1.334167655931058 2.693562803793607 -0.157531228291261 100.000000000000000
1.340458920113816 2.681508816517397 -0.157112540641317 102.000000000000000
1.346213868280232 2.669679991550428 -0.156693852991374 100.000000000000000
1.355059444221062 2.665201106682575 -0.156693852991374 102.000000000000000
1.367088654058227 2.665786402002698 -0.157007868728831 105.000000000000000
1.380521667364185 2.667853220341166 -0.157426556378775 111.000000000000000
1.391673974982491 2.666559294357316 -0.157635900203747 117.000000000000000
1.396325759406444 2.655103222418072 -0.157217212553803 117.000000000000000
1.409328528797249 2.657270784260636 -0.157635900203747 117.000000000000000
1.420479473740765 2.655857478032034 -0.157845244028719 126.000000000000000
1.430689596795937 2.652640778860576 -0.157949915941204 120.000000000000000
1.430397976757029 2.630084982451747 -0.156903196816346 120.000000000000000
1.439569972149213 2.625075938352094 -0.156903196816346 120.000000000000000
1.451623808610441 2.625278474057967 -0.157217212553803 123.000000000000000
1.466614231982781 2.630662192962653 -0.157845244028719 130.000000000000000
1.469916185944227 2.615080334210784 -0.157217212553803 131.000000000000000
1.472142589247072 2.597769965819891 -0.156484509166402 126.000000000000000
1.473275367825565 2.578741875465163 -0.155647133866515 124.000000000000000
1.501207416909245 2.606467190352418 -0.157635900203747 132.000000000000000
1.502273715844060 2.587393264517795 -0.156798524903860 130.000000000000000
1.511296251439020 2.582133587360333 -0.156798524903860 131.000000000000000
1.517372219575942 2.573931890246558 -0.156589181078888 129.000000000000000
1.522266530706541 2.561751624664817 -0.156170493428944 133.000000000000000
1.533251984636162 2.559849155342890 -0.156379837253916 129.000000000000000
1.546307175740708 2.561320819585233 -0.156798524903860 129.000000000000000
1.556276643153996 2.557613809159260 -0.156903196816346 126.000000000000000
1.561018262554866 2.545355492335234 -0.156484509166402 125.000000000000000
1.575588934860542 2.548110679994543 -0.157007868728831 126.000000000000000
1.588699165723465 2.549375578485109 -0.157426556378775 126.000000000000000
1.599268326907535 2.547476347587418 -0.157635900203747 123.000000000000000
1.608150935535557 2.541878339241095 -0.157635900203747 117.000000000000000
1.607983901744749 2.523057271311475 -0.156798524903860 100.000000000000000
1.625415564419070 2.530873202258697 -0.157635900203747 115.000000000000000
1.627729141390871 2.515123530052584 -0.157007868728831 111.000000000000000
1.639771641505993 2.514445224772399 -0.157321884466289 102.000000000000000
1.650732367514128 2.512044299560469 -0.157531228291261 114.000000000000000
1.650669767156472 2.492944515273117 -0.156693852991374 102.000000000000000
1.658927593136029 2.487456990013420 -0.156693852991374 102.000000000000000
1.665372408689161 2.478335598495049 -0.156484509166402 102.000000000000000
1.680731716234498 2.482430371151761 -0.157112540641317 100.000000000000000
1.691637790754266 2.479848263414518 -0.157321884466289 102.000000000000000
1.693496210605830 2.464052276454055 -0.156693852991374 100.000000000000000
1.699813043430858 2.454841790375355 -0.156484509166402 100.000000000000000
1.712942578697114 2.455445602923284 -0.156903196816346 100.000000000000000
1.728393854261542 2.459255699731929 -0.157531228291261 100.000000000000000
1.736967728683375 2.453207496651184 -0.157531228291261 100.000000000000000
1.743200810211619 2.443877402805946 -0.157321884466289 100.000000000000000
1.747058982243227 2.431289842736170 -0.156903196816346 100.000000000000000
1.760219673922813 2.431648108629833 -0.157321884466289 100.000000000000000
1.770626623541141 2.429025580787561 -0.157531228291261 100.000000000000000
1.783823208803491 2.429269557662999 -0.157949915941204 100.000000000000000
1.789916604415339 2.419816617255677 -0.157740572116233 100.000000000000000
1.791192439503402 2.403944528111887 -0.157112540641317 100.000000000000000
1.804368523164211 2.404067000881475 -0.157531228291261 100.000000000000000
1.823589651416545 2.412092660781843 -0.158473275503634 100.000000000000000
1.834418393180205 2.408890405370316 -0.158682619328606 100.000000000000000
1.835522347695987 2.392963948405201 -0.158054587853690 100.000000000000000
1.841421963862687 2.383381217921631 -0.157845244028719 100.000000000000000
1.852183521518596 2.380091374269771 -0.158054587853690 100.000000000000000
1.867456995753870 2.383369084999833 -0.158682619328606 100.000000000000000
1.875765129236346 2.376835923294658 -0.158682619328606 100.000000000000000
1.879491868524406 2.363691782800847 -0.158263931678662 100.000000000000000
1.890228241081014 2.360234610705241 -0.158473275503634 100.000000000000000
1.898044667984258 2.353953410602614 -0.158473275503634 100.000000000000000
1.913804426407574 2.356616089137239 -0.159101306978549 100.000000000000000
1.925812350482527 2.354559310277045 -0.159415322716007 100.000000000000000
1.927670188764999 2.340114738082711 -0.158891963153577 100.000000000000000
1.934144709864874 2.332172128605014 -0.158787291241092 100.000000000000000
1.946114742273376 2.330005189698930 -0.159101306978549 100.000000000000000
1.958093166766504 2.327783045119471 -0.159415322716007 100.000000000000000
1.972661761605064 2.328553454875417 -0.159938682278436 100.000000000000000
1.975996743515517 2.315230926048155 -0.159519994628493 100.000000000000000
1.981462607536392 2.305290014613268 -0.159310650803521 100.000000000000000
1.992111819613368 2.301379557889233 -0.159519994628493 100.000000000000000
2.006695112928381 2.301939366822826 -0.160043354190922 100.000000000000000
2.014718155363602 2.294920669484591 -0.160043354190922 100.000000000000000
2.020070845759578 2.284881368308325 -0.159834010365950 98.000000000000000
2.028034263178602 2.277816084872518 -0.159834010365950 100.000000000000000
2.041306232167027 2.276671240933720 -0.160252698015894 100.000000000000000
2.051917858073330 2.272496652769377 -0.160462041840866 100.000000000000000
2.065212509194064 2.271231094086831 -0.160880729490809 98.000000000000000
2.064247787061139 2.255890987257987 -0.160252698015894 100.000000000000000
2.072109740024477 2.248671674138828 -0.160252698015894 98.000000000000000
2.088097770046542 2.250209122194016 -0.160880729490809 98.000000000000000
2.095939744297295 2.242906591713862 -0.160880729490809 100.000000000000000
2.110599889292953 2.242849265410733 -0.161404089053239 92.000000000000000
2.117042225099872 2.234018512719676 -0.161299417140753 98.000000000000000
2.124827507237225 2.226615045875261 -0.161299417140753 98.000000000000000
2.133970797074535 2.220624542166002 -0.161404089053239 95.000000000000000
2.142095459422085 2.212788232696518 -0.161404089053239 92.000000000000000
2.158171487183832 2.213878366989451 -0.162032120528154 92.000000000000000
2.162318622213576 2.204235823356579 -0.161822776703182 95.000000000000000
2.167192423453019 2.193832741582902 -0.161613432878211 92.000000000000000
2.180853947316931 2.191537736930238 -0.162032120528154 95.000000000000000
2.194145569465600 2.189554967320245 -0.162450808178098 95.000000000000000
2.207068027964348 2.187891278666809 -0.162869495828041 95.000000000000000
2.210421776303261 2.175970424141113 -0.162555480090584 98.000000000000000
2.215147451967560 2.165449029204164 -0.162346136265612 100.000000000000000
2.228425067381151 2.163268206016778 -0.162764823915555 100.000000000000000
2.238461823001619 2.158639406573860 -0.162974167740527 100.000000000000000
2.248868257025590 2.153575330490168 -0.163183511565499 100.000000000000000
2.254924616889236 2.144335856204517 -0.163078839653013 92.000000000000000
2.266752354721803 2.140565471358096 -0.163392855390471 100.000000000000000
2.277124299474315 2.135372390276572 -0.163602199215442 100.000000000000000
2.288949227315562 2.131494055644304 -0.163916214952900 100.000000000000000
2.303707563236171 2.130271130495289 -0.164439574515330 100.000000000000000
2.302302842036656 2.114111492309867 -0.163811543040414 98.000000000000000
2.314834573418269 2.112253140377557 -0.164230230690358 100.000000000000000
2.325153703898211 2.106842158203041 -0.164439574515330 100.000000000000000
2.335463228133932 2.101384839510269 -0.164648918340301 98.000000000000000
2.354699188060543 2.103865494836648 -0.165486293640188 100.000000000000000
2.356052666293789 2.090331198423488 -0.165067605990245 98.000000000000000
2.360337675779280 2.079453728673161 -0.164858262165273 100.000000000000000
2.373957225276972 2.076047837217398 -0.165276949815217 98.000000000000000
2.734070046060856 2.374178650191745 -0.189770177336914 100.000000000000000
2.765029794574207 2.384184376582799 -0.191340256024203 95.000000000000000
2.773335305634752 2.374518096150120 -0.191340256024203 95.000000000000000
2.781194242660264 2.365308328953752 -0.191340256024203 92.000000000000000
2.795537559336768 2.360740193638089 -0.191758943674146 95.000000000000000
2.809471538139820 2.356591062191516 -0.192177631324090 92.000000000000000
2.828423250228213 2.355717198716766 -0.192910334711491 90.000000000000000
2.830880951953000 2.340244432037219 -0.192491647061547 87.000000000000000
2.842120265920449 2.332882920798990 -0.192700990886519 90.000000000000000
2.856439053616685 2.327995000582129 -0.193119678536463 86.000000000000000
2.876968674029353 2.328060976418124 -0.193957053836350 83.000000000000000
2.885077595893725 2.318004298300416 -0.193957053836350 83.000000000000000
2.890028696578749 2.305428367531007 -0.193747710011378 86.000000000000000
2.897657882187997 2.295832010984062 -0.193747710011378 86.000000000000000
2.916642605392014 2.294347245125795 -0.194480413398779 82.000000000000000
2.929355831302614 2.287840366806841 -0.194794429136237 86.000000000000000
2.943637469448499 2.282496503281760 -0.195213116786180 87.000000000000000
2.948025500144548 2.270285263800208 -0.195003772961209 86.000000000000000
2.954345662427589 2.258767816156785 -0.194899101048723 82.000000000000000
2.973742227904208 2.256375270001066 -0.195631804436124 87.000000000000000
2.989576789261185 2.251989736377030 -0.196155163998553 95.000000000000000
3.001826022612958 2.245652776227333 -0.196469179736011 86.000000000000000
3.004836222052556 2.231588320071072 -0.196155163998553 92.000000000000000
3.017818584032306 2.224114847592881 -0.196469179736011 98.000000000000000
3.028787637399833 2.215925767236757 -0.196678523560983 87.000000000000000
3.047816359200048 2.213555566970773 -0.197411226948384 92.000000000000000
3.062004975542992 2.207575333853860 -0.197829914598328 92.000000000000000
3.067684750345650 2.196246571061995 -0.197725242685842 90.000000000000000
3.072076349396162 2.183211023510538 -0.197515898860870 87.000000000000000
3.092734862379120 2.181684452356599 -0.198353274160757 90.000000000000000
3.111783932249507 2.178894566640958 -0.199085977548158 95.000000000000000
3.125930926421029 2.172578590479241 -0.199504665198102 95.000000000000000
3.126919530401649 2.157117294895302 -0.199085977548158 95.000000000000000
3.149261913436334 2.156344636158543 -0.200028024760531 90.000000000000000
3.155117880332782 2.144215897289815 -0.199923352848045 92.000000000000000
3.175455871438492 2.142678496317242 -0.200760728147933 92.000000000000000
3.191213355824800 2.137137813441151 -0.201284087710362 90.000000000000000
3.192000450707990 2.121563153370305 -0.200865400060418 87.000000000000000
3.202721072473671 2.112607554493858 -0.201074743885390 87.000000000000000
3.220102202240602 2.107978604620354 -0.201702775360306 87.000000000000000
3.237489917885351 2.103253973298544 -0.202330806835221 86.000000000000000
3.261598324588299 2.102762457097129 -0.203377525960080 83.000000000000000
3.258824017424808 2.084906392608849 -0.202749494485164 87.000000000000000
3.269091833928980 2.076229826221235 -0.202958838310136 86.000000000000000
3.286457484272027 2.071195208212760 -0.203586869785051 83.000000000000000
3.303827695744028 2.066064575694111 -0.204214901259967 83.000000000000000
3.321202009362578 2.060837835909110 -0.204842932734882 87.000000000000000
3.323273180180378 2.046090734059869 -0.204528916997424 82.000000000000000
3.337212718109173 2.038642625238590 -0.204947604647368 81.000000000000000
3.352848691266289 2.032157310923696 -0.205470964209797 76.000000000000000
3.373614825273894 2.028675400289793 -0.206308339509685 90.000000000000000
nan nan nan nan
7.239458499939903 4.284815414070093 -0.440878095390559 25.000000000000000
7.262982743417404 4.264575292380989 -0.441401454952988 67.000000000000000
7.298534599285069 4.251259933817605 -0.442657517902819 75.000000000000000
7.322228164471852 4.234308990747849 -0.443285549377734 70.000000000000000
7.352556183019786 4.217668007082265 -0.444227596590107 75.000000000000000
7.378381862441884 4.196615846389503 -0.444855628065023 86.000000000000000
7.408641568564970 4.179667276380797 -0.445797675277396 70.000000000000000
7.432917734685976 4.160929948670296 -0.446425706752311 55.000000000000000
7.485812452718346 4.156288087469634 -0.448728488827000 75.000000000000000
7.520242511003125 4.139417431160412 -0.449879879864345 86.000000000000000
7.524127606693035 4.107399729137452 -0.449251848389430 81.000000000000000
7.552470375485552 4.088717515081211 -0.450089223689317 82.000000000000000
7.584293619787389 4.071776841865660 -0.451135942814176 78.000000000000000
7.625250534510544 4.062957144971711 -0.452810693413950 75.000000000000000
7.658811608004626 4.046578700454771 -0.453962084451295 83.000000000000000
7.679966823435897 4.023527271545282 -0.454380772101238 77.000000000000000
7.704599132947721 4.002218783281271 -0.455008803576154 78.000000000000000
7.751179876140219 3.990408426148285 -0.456892898000900 86.000000000000000
7.777514339963431 3.969683299788179 -0.457625601388301 85.000000000000000
7.821619369411355 3.957840505132067 -0.459405023900561 90.000000000000000
7.833601926098903 3.929618308447168 -0.459300351988075 85.000000000000000
7.874096349183240 3.915589499667741 -0.460870430675363 86.000000000000000
7.891299218254604 3.889846023883335 -0.461079774500335 83.000000000000000
7.940042219943524 3.881198284100556 -0.463173212750053 78.000000000000000
7.976908094136849 3.864779614571789 -0.464533947612369 75.000000000000000
7.996881459384170 3.841765475861367 -0.464952635262313 75.000000000000000
8.024669375652270 3.820696412635932 -0.465790010562200 70.000000000000000
8.065051443733120 3.805446065432410 -0.467360089249488 77.000000000000000
8.105424492451050 3.789960196990652 -0.468930167936777 82.000000000000000
8.131289860952425 3.767521464367764 -0.469662871324178 81.000000000000000
8.167987835786851 3.749948196555932 -0.471023606186494 82.000000000000000
8.186481854146175 3.723894694791257 -0.471337621923952 81.000000000000000
8.235848433815516 3.711708448475087 -0.473431060173670 78.000000000000000
8.268815626313865 3.691894315257437 -0.474582451211015 75.000000000000000
8.303571163591981 3.672703042665568 -0.475838514160845 75.000000000000000
8.326042878276519 3.651411455860704 -0.476466545635761 75.000000000000000
8.360720570985377 3.631875086391067 -0.477722608585591 75.000000000000000
8.400867009789417 3.614509095819034 -0.479292687272880 78.000000000000000
6.291241313846366 2.680846617719632 -0.358396628351679 27.000000000000000
6.295040535247495 2.656540137497324 -0.358082612614222 58.000000000000000
6.282161441322151 2.625308827284859 -0.356826549664391 63.000000000000000
nan nan nan nan
6.264773381517234 2.568093578076274 -0.354837783327159 66.000000000000000
6.271848885026620 2.545458697967109 -0.354733111414673 60.000000000000000
6.241777537144413 2.507913126424307 -0.352535001252470 53.000000000000000
6.215232661597891 2.472085010551528 -0.350546234915238 56.000000000000000
6.190372555514998 2.437204615069339 -0.348662140490492 56.000000000000000
6.189537496631961 2.411955423924930 -0.348138780928062 58.000000000000000
6.166240002160849 2.378117623371302 -0.346359358415802 58.000000000000000
6.148379997372931 2.346608525090172 -0.344893951641000 57.000000000000000
6.126638575498442 2.313841901524611 -0.343219201041226 57.000000000000000
6.106614579309657 2.281954920009931 -0.341649122353937 55.000000000000000
6.105176244446232 2.257161987587359 -0.341125762791508 31.000000000000000
nan nan nan nan
2.933619711606998 1.061376439458070 -0.163497527302957 66.000000000000000
2.910798184498816 1.042216638245400 -0.162032120528154 62.000000000000000
2.895591473229640 1.025382719132142 -0.160985401403295 45.000000000000000
2.885957980862643 1.010648111596633 -0.160252698015894 63.000000000000000
2.880031679954912 0.997300386490100 -0.159729338453465 67.000000000000000
2.881605784258400 0.986594176934069 -0.159624666540979 71.000000000000000
2.877464787617974 0.973968096142783 -0.159205978891035 90.000000000000000
2.865694656061450 0.958848019040264 -0.158368603591148 90.000000000000000
2.863335455525454 0.946957663461910 -0.158054587853690 92.000000000000000
2.878178203004268 0.940177673673512 -0.158682619328606 92.000000000000000
2.887144563680963 0.931965846179531 -0.158996635066063 100.000000000000000
2.878802928595491 0.918743208794828 -0.158368603591148 90.000000000000000
2.885802041884155 0.909889888750572 -0.158577947416120 83.000000000000000
2.886896677393202 0.899720953966972 -0.158473275503634 82.000000000000000
2.903381747828718 0.893751577710724 -0.159205978891035 70.000000000000000
2.927503770330893 0.890001791351037 -0.160357369928380 100.000000000000000
2.959286412969595 0.888391483186532 -0.161927448615668 76.000000000000000
2.935560675678263 0.870110023238233 -0.160462041840866 78.000000000000000
2.927078750272470 0.856492311018432 -0.159834010365950 100.000000000000000
2.941563602695418 0.849594906073368 -0.160462041840866 86.000000000000000
2.940669819294545 0.838226751344058 -0.160252698015894 72.000000000000000
2.918296669888174 0.821945187080498 -0.158891963153577 75.000000000000000
2.903828955380683 0.806940655777671 -0.157949915941204 90.000000000000000
2.912545897183898 0.797875256369600 -0.158263931678662 95.000000000000000
2.917241374584107 0.788224681046731 -0.158368603591148 90.000000000000000
2.929488352960043 0.781119282770985 -0.158891963153577 92.000000000000000
2.922539027361606 0.768349542164807 -0.158368603591148 90.000000000000000
2.925335539083603 0.757632740297726 -0.158368603591148 76.000000000000000
2.947314380121783 0.752356763517614 -0.159415322716007 70.000000000000000
2.947985723556806 0.741576894358105 -0.159310650803521 63.000000000000000
2.973819606226785 0.737047678278424 -0.160566713753352 61.000000000000000
2.980254805332454 0.727610029206844 -0.160776057578323 61.000000000000000
2.982776481578490 0.717202565703590 -0.160776057578323 62.000000000000000
2.994979462767329 0.709087100173152 -0.161299417140753 57.000000000000000
nan nan nan nan
2.797400532088551 0.641718030434044 -0.150413538242221 5.000000000000000
2.766503392283936 0.624473282152765 -0.148634115729960 3.000000000000000
2.764766826265303 0.613946645456943 -0.148424771904989 2.000000000000000
2.798113288031062 0.611110596118114 -0.150099522504763 2.000000000000000
2.803924524668323 0.603157114412311 -0.150308866329735 2.000000000000000
2.807966901383690 0.593779124125406 -0.150413538242221 5.000000000000000
5.422738220472608 1.125956528185783 -0.290255213323366 58.000000000000000
5.403152048116540 1.102230210081996 -0.288999150373536 75.000000000000000
5.385236520764066 1.079986704952462 -0.287847759336191 65.000000000000000
5.373296555160932 1.058095066499692 -0.287010384036304 65.000000000000000
5.369294464345051 1.036879045364492 -0.286591696386360 65.000000000000000
5.349333081422438 1.013668170700300 -0.285335633436530 67.000000000000000
5.333029511730708 0.992270144773499 -0.284288914311671 68.000000000000000
5.326636572656719 0.971855921818523 -0.283765554749241 70.000000000000000
5.320166216695606 0.951498442245974 -0.283242195186812 67.000000000000000
5.313618762169665 0.931197997367745 -0.282718835624383 70.000000000000000
5.283372891123008 0.906900181666499 -0.280939413112123 68.000000000000000
5.274688551917960 0.886466135613908 -0.280311381637207 67.000000000000000
5.261984515242527 0.865455510774320 -0.279474006337320 68.000000000000000
5.257085860245114 0.845813446998309 -0.279055318687376 67.000000000000000
5.249997066466705 0.826822078706780 -0.278531959124947 66.000000000000000
5.219292991504650 0.803326024916959 -0.276752536612687 65.000000000000000
5.210351585650690 0.782411408128590 -0.276124505137772 67.000000000000000
5.207122555118643 0.763350031054861 -0.275810489400314 66.000000000000000
5.203694022332203 0.745228968132232 -0.275496473662856 67.000000000000000
5.190439144612507 0.724850236780413 -0.274659098362969 68.000000000000000
5.173147563183630 0.704034484563735 -0.273612379238110 68.000000000000000
5.165673865626493 0.684660427742119 -0.273089019675681 70.000000000000000
5.152069452182584 0.665479828410847 -0.272251644375794 70.000000000000000
5.146434284674536 0.646495937469202 -0.271832956725850 71.000000000000000
5.140838909298447 0.626662272029473 -0.271414269075907 71.000000000000000
5.109276994396250 0.604722782811936 -0.269634846563647 67.000000000000000
5.097364957057976 0.586179266054816 -0.268902143176245 66.000000000000000
5.095410115785874 0.567940077405851 -0.268692799351274 70.000000000000000
5.077504282296135 0.548007152329095 -0.267646080226415 66.000000000000000
5.087332102906441 0.531109550809360 -0.268064767876358 62.000000000000000
5.055373053422993 0.509940590234795 -0.266285345364098 67.000000000000000
5.045195104016536 0.491129874864840 -0.265657313889183 68.000000000000000
5.038842035955452 0.473649034453821 -0.265238626239239 67.000000000000000
5.038475547623058 0.455877332478354 -0.265133954326753 70.000000000000000
5.036056660827156 0.437940931734983 -0.264924610501782 70.000000000000000
5.013670578957865 0.418366134772097 -0.263668547551951 71.000000000000000
4.991279047694672 0.398081845817054 -0.262412484602120 70.000000000000000
4.992638204073126 0.380656605294611 -0.262412484602120 78.000000000000000
4.973953338630918 0.362646000610549 -0.261365765477261 73.000000000000000
4.979173839425059 0.345558011017890 -0.261575109302233 78.000000000000000
4.948462734103301 0.326074182874403 -0.259900358702459 76.000000000000000
4.941597264380081 0.308301376998371 -0.259481671052516 70.000000000000000
4.938604888459034 0.291677246322947 -0.259272327227544 71.000000000000000
4.935604577045696 0.274214933357283 -0.259062983402572 70.000000000000000
4.922569788570601 0.256257961982196 -0.258330280015171 68.000000000000000
4.903485220290691 0.238104732599653 -0.257283560890312 67.000000000000000
4.886367730235269 0.219324949061268 -0.256341513677939 70.000000000000000
4.877125794492674 0.201854048062309 -0.255818154115509 67.000000000000000
4.875804856698299 0.184752846843793 -0.255713482203024 71.000000000000000
4.870431823564221 0.167526011538488 -0.255399466465566 67.000000000000000
4.856986513311599 0.150939886353885 -0.254666763078165 70.000000000000000
4.845504803138341 0.133654500891978 -0.254038731603249 70.000000000000000
4.833961745262839 0.116451115906736 -0.253410700128334 70.000000000000000
4.826351443300335 0.099412209385523 -0.252992012478390 71.000000000000000
4.822675119039105 0.082496173424040 -0.252782668653419 70.000000000000000
4.806957111059495 0.065443881238481 -0.251945293353532 71.000000000000000
4.793176170045816 0.048522546794505 -0.251212589966130 75.000000000000000
4.795313558816154 0.031804190223822 -0.251317261878616 82.000000000000000
4.771422847739439 0.016655475386950 -0.250061198928786 68.000000000000000
4.777443694265881 0.000000000000000 -0.250375214666243 75.000000000000000
4.751450378724204 -0.016585758034972 -0.249014479803927 71.000000000000000
4.741377484174175 -0.033101597050484 -0.248491120241497 68.000000000000000
4.735232876207163 -0.050415601621131 -0.248177104504040 71.000000000000000
4.725042746820669 -0.066803168590906 -0.247653744941610 68.000000000000000
4.724780773668317 -0.083296238754326 -0.247653744941610 68.000000000000000
4.716473975725640 -0.099619590185650 -0.247235057291667 67.000000000000000
4.696130960887638 -0.115591091106558 -0.246188338166808 67.000000000000000
4.681723568012135 -0.131590136692587 -0.245455634779407 66.000000000000000
4.687250278316774 -0.147302774258155 -0.245769650516864 67.000000000000000
4.682715454560129 -0.163524026984138 -0.245560306691892 60.000000000000000
4.650183529716889 -0.178642031670619 -0.243885556092118 16.000000000000000
4.653522636414757 -0.195040386099690 -0.244094899917090 16.000000000000000
4.654808670593298 -0.211373624862950 -0.244199571829576 40.000000000000000
4.677980975661027 -0.228791439325310 -0.245455634779407 81.000000000000000
4.669175757057128 -0.244701132509576 -0.245036947129463 66.000000000000000
4.654334130384667 -0.260217676620990 -0.244304243742062 63.000000000000000
4.633507984434447 -0.274469551862020 -0.243257524617203 65.000000000000000
4.634515017781126 -0.290766901935992 -0.243362196529689 66.000000000000000
4.635464707935933 -0.307074625215760 -0.243466868442175 65.000000000000000
4.630379740358173 -0.322975597836242 -0.243257524617203 67.000000000000000
4.601396006754727 -0.336290589774590 -0.241792117842400 65.000000000000000
4.592228396182787 -0.351740279879334 -0.241373430192457 65.000000000000000
4.584999971710094 -0.367289556237389 -0.241059414454999 66.000000000000000
4.581699645894280 -0.383125523632273 -0.240954742542513 65.000000000000000
4.578414214367163 -0.398143849830974 -0.240850070630028 66.000000000000000
4.561083470469670 -0.412683270182734 -0.240012695330140 66.000000000000000
4.545770203755914 -0.426500105628115 -0.239279991942739 65.000000000000000
4.548229471233190 -0.442752227616529 -0.239489335767711 65.000000000000000
4.544508795716617 -0.460011726334472 -0.239384663855225 66.000000000000000
4.540888977801351 -0.475664142792041 -0.239279991942739 67.000000000000000
4.515543503301295 -0.487355598121376 -0.238023928992909 63.000000000000000
4.501905002961575 -0.501787337575562 -0.237395897517993 65.000000000000000
4.496067336624215 -0.517827233049849 -0.237186553693021 65.000000000000000
4.496215723596850 -0.533753727041870 -0.237291225605507 66.000000000000000
4.494516701650435 -0.547876348126037 -0.237291225605507 62.000000000000000
4.478704779716220 -0.561821645821046 -0.236558522218106 63.000000000000000
4.466812130633455 -0.576174271914249 -0.236035162655677 62.000000000000000
4.458833861782623 -0.590975578104734 -0.235721146918219 65.000000000000000
4.452785775502360 -0.605997547922112 -0.235511803093247 63.000000000000000
4.448665257710950 -0.621260740289307 -0.235407131180761 62.000000000000000
4.432519076816506 -0.635577333294388 -0.234674427793360 65.000000000000000
4.416441239035559 -0.649013136791560 -0.233941724405959 66.000000000000000
4.416355627564421 -0.663181163220443 -0.234046396318445 65.000000000000000
4.414013787348674 -0.678593080915338 -0.234046396318445 63.000000000000000
4.409524029895937 -0.694455973660148 -0.233941724405959 66.000000000000000
4.393270148446512 -0.707620629493180 -0.233209021018558 67.000000000000000
4.383016315318120 -0.720888785004527 -0.232790333368614 67.000000000000000
4.376533966527896 -0.735521939258440 -0.232580989543642 67.000000000000000
4.377876792048274 -0.751470195240795 -0.232790333368614 67.000000000000000
4.367357886714795 -0.765368217014584 -0.232371645718671 67.000000000000000
4.353134750328026 -0.776979242157596 -0.231743614243755 68.000000000000000
4.336641426075612 -0.789665182663005 -0.231010910856354 66.000000000000000
4.339749622720861 -0.805892046387425 -0.231324926593812 67.000000000000000
4.329060484236654 -0.819549652331997 -0.230906238943868 68.000000000000000
4.330095535950442 -0.835412614785934 -0.231115582768840 68.000000000000000
4.315394453307873 -0.848211177159418 -0.230487551293925 67.000000000000000
4.306532138524884 -0.862093430772862 -0.230173535556467 70.000000000000000
4.293711512052283 -0.875126418259444 -0.229650175994038 68.000000000000000
4.294541832306438 -0.890920339715421 -0.229859519819009 67.000000000000000
4.287497392012004 -0.905080609755932 -0.229650175994038 67.000000000000000
4.272595509132243 -0.917525189116274 -0.229022144519122 67.000000000000000
4.261561660432246 -0.930729108732191 -0.228603456869179 67.000000000000000
4.256501979395331 -0.944423212694892 -0.228498784956693 66.000000000000000
4.251231076554485 -0.958835993725800 -0.228394113044207 68.000000000000000
4.253698532733067 -0.975008402247767 -0.228708128781665 70.000000000000000
4.230817170319801 -0.985320432083003 -0.227661409656806 66.000000000000000
4.190423392523929 -0.991346382171945 -0.225672643319574 46.000000000000000
4.181111438668538 -1.004567880438854 -0.225358627582116 41.000000000000000
4.183400427722371 -1.020576660221779 -0.225672643319574 46.000000000000000
4.193383283339201 -1.038534187205142 -0.226405346706975 63.000000000000000
4.160677564060684 -1.045861993848407 -0.224835268019687 48.000000000000000
4.151195608156748 -1.058898120733881 -0.224521252282229 50.000000000000000
4.166809616894676 -1.078386158493022 -0.225567971407088 48.000000000000000
7.085827014985507 -1.860253805285775 -0.383936574998236 22.000000000000000
7.085080389303343 -1.886518317066776 -0.384250590735694 30.000000000000000
nan nan nan nan
7.233553294815108 -1.980233295990541 -0.393043031384508 3.000000000000000
7.253540292054820 -2.012948167181253 -0.394508438159311 67.000000000000000
7.248392251101071 -2.038796279066993 -0.394613110071796 65.000000000000000
7.225865356098026 -2.059705446477039 -0.393775734771909 61.000000000000000
7.197524509922056 -2.078819629929027 -0.392624343734565 58.000000000000000
7.188307343498207 -2.103370115467660 -0.392519671822079 60.000000000000000
7.180921417999666 -2.128449176218767 -0.392519671822079 61.000000000000000
7.165796317378217 -2.151205233365706 -0.392100984172135 61.000000000000000
7.165887166279928 -2.178529189012004 -0.392519671822079 60.000000000000000
7.131514930892894 -2.195303020596490 -0.391054265047276 61.000000000000000
7.120382022914076 -2.217752036481259 -0.390844921222305 62.000000000000000
7.110692423995745 -2.241992709376821 -0.390740249309819 62.000000000000000
7.097114952849425 -2.264978300597954 -0.390426233572361 62.000000000000000
7.092966626193284 -2.290965797514166 -0.390635577397333 61.000000000000000
7.071233949830515 -2.312601603303761 -0.389902874009932 62.000000000000000
7.049845409250737 -2.332878540336794 -0.389170170622530 60.000000000000000
7.045447068169440 -2.358741020831084 -0.389379514447502 62.000000000000000
7.029603752102466 -2.380757140836481 -0.388960826797559 60.000000000000000
7.021250532067845 -2.405280532735000 -0.388960826797559 62.000000000000000
6.999601404465681 -2.425197538922446 -0.388228123410157 62.000000000000000
6.983980613387391 -2.445755227606482 -0.387809435760214 62.000000000000000
6.977283484908352 -2.470785667817760 -0.387914107672700 63.000000000000000
6.964855604252984 -2.493779346292609 -0.387704763847728 61.000000000000000
nan nan nan nan
3.948168548012743 -1.444824515064496 -0.220334375782794 52.000000000000000
3.944974322861432 -1.459290313205421 -0.220439047695279 88.000000000000000
3.915280744914815 -1.464642407328680 -0.219078312832963 70.000000000000000
3.926958143055863 -1.484657126697193 -0.220020360045336 86.000000000000000
3.907086463984091 -1.491971240389828 -0.219182984745449 82.000000000000000
3.892537959610267 -1.502005393235311 -0.218659625183019 87.000000000000000
3.874245466405441 -1.510505187939972 -0.217926921795618 77.000000000000000
3.889390350291180 -1.532071602735366 -0.219078312832963 82.000000000000000
3.874740134609503 -1.541946374439541 -0.218554953270533 81.000000000000000
3.869334131072494 -1.555462347509057 -0.218554953270533 82.000000000000000
3.856205540859643 -1.566626757164734 -0.218136265620590 82.000000000000000
3.848865748429395 -1.579319687305942 -0.218031593708104 83.000000000000000
3.843607373245768 -1.592074302435624 -0.218031593708104 86.000000000000000
3.838026580257392 -1.605481296491136 -0.218031593708104 86.000000000000000
3.832399022126344 -1.618868728263707 -0.218031593708104 83.000000000000000
3.823050523766931 -1.630669236902825 -0.217822249883132 87.000000000000000
3.806328882365327 -1.639264197974679 -0.217194218408217 87.000000000000000
3.811573232319730 -1.657319209482463 -0.217822249883132 86.000000000000000
3.802107256428869 -1.669008398339525 -0.217612906058160 87.000000000000000
3.799910170170513 -1.683888406661959 -0.217822249883132 90.000000000000000
3.783070154330978 -1.692249059358650 -0.217194218408217 86.000000000000000
3.773499438078552 -1.703800327216469 -0.216984874583245 87.000000000000000
3.763894218802871 -1.715305418555774 -0.216775530758273 90.000000000000000
3.768770911768156 -1.733440943827777 -0.217403562233189 90.000000000000000
3.768437138341452 -1.748450911696259 -0.217717577970646 95.000000000000000
3.747840520363896 -1.754819196272929 -0.216880202670759 95.000000000000000
3.735966551750639 -1.765983298583995 -0.216566186933302 90.000000000000000
3.735187448798978 -1.781593023118375 -0.216880202670759 95.000000000000000
3.734344825310808 -1.797218795017578 -0.217194218408217 100.000000000000000
3.731641909939039 -1.811987954461849 -0.217403562233189 100.000000000000000
3.718437635312589 -1.820839124275677 -0.216984874583245 98.000000000000000
3.704896386349711 -1.830269338947147 -0.216566186933302 100.000000000000000
3.703847696441037 -1.845863272091927 -0.216880202670759 100.000000000000000
3.699166316797913 -1.859677962677909 -0.216984874583245 100.000000000000000
3.694433601088647 -1.873482451465569 -0.217089546495731 100.000000000000000
3.677202552956471 -1.880909832247496 -0.216461515020816 100.000000000000000
3.674164466971694 -1.895565669811953 -0.216670858845787 100.000000000000000
3.663981820988220 -1.906535503992186 -0.216461515020816 100.000000000000000
3.659072970362232 -1.920241673394700 -0.216566186933302 100.000000000000000
3.655878327737919 -1.934871060830841 -0.216775530758273 100.000000000000000
3.638530094195612 -1.941978118359322 -0.216147499283358 100.000000000000000
3.628211745129521 -1.952773987311748 -0.215938155458386 100.000000000000000
3.624883971046605 -1.967332319411985 -0.216147499283358 100.000000000000000
3.621498726675925 -1.981891190031597 -0.216356843108330 102.000000000000000
3.622250709251452 -1.997115962730213 -0.216775530758273 100.000000000000000
3.604783458503965 -2.003925267032116 -0.216147499283358 108.000000000000000
3.590446135231042 -2.013216736925189 -0.215728811633414 102.000000000000000
3.595567506200670 -2.032617701602736 -0.216461515020816 111.000000000000000
3.588450440916275 -2.045156191004169 -0.216461515020816 111.000000000000000
3.586484945961125 -2.060654774982627 -0.216775530758273 108.000000000000000
3.569261114292888 -2.066532205543925 -0.216147499283358 108.000000000000000
3.560300873591217 -2.077971892554664 -0.216042827370872 105.000000000000000
3.552660812020282 -2.091007090250290 -0.216042827370872 111.000000000000000
3.555646412621896 -2.109509973272482 -0.216670858845787 111.000000000000000
3.553774419478244 -2.124363655230471 -0.216984874583245 114.000000000000000
3.529230084295544 -2.126448147762014 -0.215938155458386 102.000000000000000
3.523119494803518 -2.140406158203858 -0.216042827370872 105.000000000000000
3.517329926439053 -2.153734070661880 -0.216147499283358 100.000000000000000
3.513568226394105 -2.167483341323293 -0.216356843108330 100.000000000000000
3.505980891741229 -2.179734778174991 -0.216356843108330 100.000000000000000
3.494965882967276 -2.189838746448769 -0.216147499283358 100.000000000000000
3.487300626719702 -2.202025112807281 -0.216147499283358 100.000000000000000
3.483349713913665 -2.215721211483473 -0.216356843108330 100.000000000000000
3.478957117603986 -2.230022524673178 -0.216566186933302 100.000000000000000
3.471151691324961 -2.242152765198890 -0.216566186933302 100.000000000000000
3.459956165450266 -2.252076608289090 -0.216356843108330 88.000000000000000
3.448733693901590 -2.261949638498046 -0.216147499283358 98.000000000000000
3.447482026162515 -2.278378977686453 -0.216566186933302 100.000000000000000
3.446157600751794 -2.294827086074838 -0.216984874583245 98.000000000000000
3.438126164164681 -2.306842440109067 -0.216984874583245 100.000000000000000
3.425088938083548 -2.315473926682125 -0.216670858845787 92.000000000000000
3.412033405946596 -2.324042545467848 -0.216356843108330 86.000000000000000
3.410078788652167 -2.341054254913594 -0.216775530758273 86.000000000000000
3.408456727930796 -2.357487943832022 -0.217194218408217 90.000000000000000
3.400206793818493 -2.369371315509794 -0.217194218408217 86.000000000000000
3.383742139068460 -2.375487923610523 -0.216670858845787 81.000000000000000
3.373382371670488 -2.386720440516643 -0.216566186933302 83.000000000000000
3.374789036918091 -2.405436681309136 -0.217194218408217 86.000000000000000
3.370038868119915 -2.418943926280507 -0.217403562233189 83.000000000000000
3.359956170652829 -2.429522529954677 -0.217298890320703 77.000000000000000
3.356724868262289 -2.444178140378979 -0.217612906058160 90.000000000000000
3.343341226104117 -2.452336567051516 -0.217298890320703 81.000000000000000
3.337973284027282 -2.466365853477329 -0.217508234145675 77.000000000000000
3.342161217178179 -2.487542480687701 -0.218345609445562 86.000000000000000
3.326630249101472 -2.494981972383720 -0.217926921795618 81.000000000000000
3.311526420461193 -2.501763165182968 -0.217508234145675 77.000000000000000
3.311599681988942 -2.518198913985121 -0.218031593708104 78.000000000000000
3.298032574236198 -2.526099799200251 -0.217717577970646 78.000000000000000
3.305698853334013 -2.552170735956271 -0.218868969007991 82.000000000000000
3.287310090341935 -2.556337861692147 -0.218240937533076 76.000000000000000
3.284656211217889 -2.572723370753756 -0.218659625183019 82.000000000000000
3.264679371940952 -2.575514017663253 -0.217926921795618 77.000000000000000
3.267521148334527 -2.594451293337656 -0.218659625183019 82.000000000000000
3.255325294650108 -2.603346442674463 -0.218450281358048 73.000000000000000
3.269549793574144 -2.633486508130390 -0.220020360045336 86.000000000000000
3.238622389869848 -2.627267544091128 -0.218554953270533 81.000000000000000
3.227885121171255 -2.637292763250949 -0.218450281358048 76.000000000000000
3.232539766368604 -2.659965726284844 -0.219392328570421 86.000000000000000
3.219693631208995 -2.669246286941373 -0.219182984745449 77.000000000000000
3.225687823294674 -2.693269563965267 -0.220229703870308 86.000000000000000
3.201450200738526 -2.691100041133611 -0.219182984745449 82.000000000000000
3.192037004241245 -2.702258792705216 -0.219182984745449 78.000000000000000
3.201866518040748 -2.730788763048360 -0.220543719607765 82.000000000000000
3.181709082571892 -2.732839261835152 -0.219811016220364 77.000000000000000
3.192750976931112 -2.759800763792279 -0.221171751082681 78.000000000000000
3.165020798227325 -2.755192268590619 -0.219915688132850 83.000000000000000
3.153399636041338 -2.765457259218179 -0.219811016220364 82.000000000000000
3.152709254805019 -2.784380538094241 -0.220439047695279 78.000000000000000
3.143458581538799 -2.794819989266084 -0.220439047695279 77.000000000000000
3.153027414632711 -2.823095283378152 -0.221799782557596 82.000000000000000
3.126837250597217 -2.819372110168710 -0.220648391520251 82.000000000000000
3.114019472138922 -2.827584367157030 -0.220439047695279 78.000000000000000
3.111500119362276 -2.845176026503004 -0.220962407257709 76.000000000000000
3.122118899239691 -2.874960773046312 -0.222427814032511 78.000000000000000
3.120851397674846 -2.893989744870554 -0.223055845507427 76.000000000000000
3.093213456821187 -2.888508155951395 -0.221799782557596 78.000000000000000
3.085073034188216 -2.900117719474685 -0.221904454470082 78.000000000000000
3.076381377967845 -2.912242016916779 -0.222009126382568 76.000000000000000
3.076316475973919 -2.932609591630317 -0.222741829769969 75.000000000000000
3.076146743206786 -2.953012080450803 -0.223474533157370 78.000000000000000
3.052896234808406 -2.951238362483077 -0.222532485944997 77.000000000000000
3.046869271996733 -2.966056485647228 -0.222846501682455 70.000000000000000
3.042722718180674 -2.981735587791041 -0.223265189332398 70.000000000000000
3.037982424795052 -2.997950017897984 -0.223683876982342 70.000000000000000
3.028915823143114 -3.009944122686801 -0.223788548894828 68.000000000000000
3.014155357133751 -3.016260369413093 -0.223474533157370 71.000000000000000
3.006950683848617 -3.029073968737060 -0.223683876982342 70.000000000000000
3.001967456454509 -3.045241112114651 -0.224102564632285 70.000000000000000
2.997770479959808 -3.063360792277202 -0.224625924194715 68.000000000000000
2.994018688969744 -3.080968011863079 -0.225149283757144 66.000000000000000
2.979623882862659 -3.086568745213520 -0.224835268019687 68.000000000000000
2.967449456801855 -3.095508985691963 -0.224730596107201 70.000000000000000
2.965721824925660 -3.116492316329468 -0.225463299494602 68.000000000000000
2.964427664323671 -3.136987088158429 -0.226196002882003 70.000000000000000
2.951274813265324 -3.143887880716163 -0.225986659057031 70.000000000000000
2.938920743960537 -3.152709658151551 -0.225881987144546 67.000000000000000
2.931968122171917 -3.167346254966117 -0.226196002882003 71.000000000000000
2.929003998258805 -3.186383912152142 -0.226824034356919 70.000000000000000
2.921114976890190 -3.199029092862261 -0.227033378181890 71.000000000000000
2.920663285341387 -3.221042826999744 -0.227870753481777 71.000000000000000
2.904056245269665 -3.225281209764365 -0.227452065831834 71.000000000000000
2.888786506281880 -3.230931882185549 -0.227138050094376 68.000000000000000
2.890751176355916 -3.255931410133396 -0.228184769219235 75.000000000000000
2.885972298929811 -3.273493009254635 -0.228708128781665 71.000000000000000
2.878474814088115 -3.288055291807036 -0.229022144519122 75.000000000000000
2.863048863039472 -3.293560960370641 -0.228708128781665 71.000000000000000
2.856027221556431 -3.307572125751534 -0.229022144519122 67.000000000000000
2.850964387141035 -3.325102543502905 -0.229545504081552 71.000000000000000
2.847108616952242 -3.344158588764253 -0.230173535556467 71.000000000000000
2.843154454186909 -3.363228119871294 -0.230801567031382 70.000000000000000
2.823692793337754 -3.363953500329911 -0.230173535556467 71.000000000000000
2.817048132177538 -3.379926485530679 -0.230592223206410 70.000000000000000
2.809052932835775 -3.394355303933800 -0.230906238943868 75.000000000000000
2.807331232939512 -3.416485071798143 -0.231743614243755 75.000000000000000
2.797913564013288 -3.429358761277920 -0.231952958068727 68.000000000000000
2.785925822153017 -3.439104409392684 -0.231952958068727 75.000000000000000
2.771400611078546 -3.445695510368074 -0.231743614243755 68.000000000000000
2.766833934400362 -3.464712599584072 -0.232371645718671 68.000000000000000
2.763409037393525 -3.485304700378379 -0.233104349106072 71.000000000000000
2.756167800764500 -3.501206941232298 -0.233523036756015 70.000000000000000
