# This PCD file was generated using the MATLABÂ® pcwrite function
# from Computer Vision ToolboxÂ®.
# .PCD v.7 - Point Cloud Data file format
VERSION .7
FIELDS x y z intensity
SIZE 8 8 8 8
TYPE F F F F
COUNT 1 1 1 1
WIDTH 693
HEIGHT 1
VIEWPOINT 0 0 0 1 0 0 0
POINTS 693
DATA ascii
nan nan nan nan
nan nan nan nan
nan nan nan nan
nan nan nan nan
nan nan nan nan
nan nan nan nan
nan nan nan nan
nan nan nan nan
nan nan nan nan
nan nan nan nan
nan nan nan nan
nan nan nan nan
nan nan nan nan
nan nan nan nan
nan nan nan nan
nan nan nan nan
nan nan nan nan
nan nan nan nan
nan nan nan nan
nan nan nan nan
nan nan nan nan
nan nan nan nan
nan nan nan nan
nan nan nan nan
nan nan nan nan
nan nan nan nan
nan nan nan nan
nan nan nan nan
nan nan nan nan
nan nan nan nan
nan nan nan nan
nan nan nan nan
nan nan nan nan
nan nan nan nan
nan nan nan nan
nan nan nan nan
nan nan nan nan
nan nan nan nan
nan nan nan nan
nan nan nan nan
nan nan nan nan
nan nan nan nan
nan nan nan nan
nan nan nan nan
nan nan nan nan
nan nan nan nan
nan nan nan nan
nan nan nan nan
nan nan nan nan
nan nan nan nan
nan nan nan nan
nan nan nan nan
nan nan nan nan
nan nan nan nan
nan nan nan nan
nan nan nan nan
nan nan nan nan
nan nan nan nan
nan nan nan nan
nan nan nan nan
nan nan nan nan
nan nan nan nan
nan nan nan nan
nan nan nan nan
0.932504520211975 3.067308993420235 -0.393637979198626 1.000000000000000
0.942136138039456 3.064364312338290 -0.393637979198626 1.000000000000000
0.931587537964655 2.992822886984984 -0.384863386473456 1.000000000000000
0.944415157182546 2.997126087659297 -0.385838341220697 1.000000000000000
0.948839289730508 2.974898941218882 -0.383400954352594 1.000000000000000
0.947021813198275 2.933786566182792 -0.378526180616388 1.000000000000000
0.949860165121369 2.907819340649144 -0.375601316374664 1.000000000000000
0.964365387339791 2.917679636255003 -0.377307487182337 2.000000000000000
0.978321417417250 2.925591316717657 -0.378769919303198 3.000000000000000
0.988653438684285 2.924211521972166 -0.379013657990009 6.000000000000000
0.988577212706693 2.890690004532994 -0.375113839001044 7.000000000000000
1.004501707316639 2.904105951943577 -0.377307487182337 11.000000000000000
1.017910046855089 2.909950698396699 -0.378526180616388 11.000000000000000
1.024089563697908 2.895151031482732 -0.377063748495526 15.000000000000000
1.029509698102336 2.878474677739157 -0.375357577687854 20.000000000000000
1.036851044755432 2.867396303727421 -0.374382622940613 26.000000000000000
1.047535354318143 2.865623975790850 -0.374626361627423 33.000000000000000
1.055656897435765 2.858410154296548 -0.374138884253803 33.000000000000000
1.065628179463075 2.854707809640688 -0.374138884253803 43.000000000000000
1.070681522528398 2.837969512040505 -0.372432713446131 53.000000000000000
1.079874175108584 2.832359993539162 -0.372188974759320 57.000000000000000
1.089974015582299 2.830615925785508 -0.372432713446131 60.000000000000000
1.102727252000483 2.834193945556629 -0.373407668193372 63.000000000000000
1.109708720265865 2.822937553351304 -0.372432713446131 67.000000000000000
1.115159688789634 2.807977193438732 -0.370970281325269 70.000000000000000
1.124215435270620 2.802225095470138 -0.370726542638459 75.000000000000000
1.136226844176846 2.803803076550549 -0.371457758698890 77.000000000000000
1.146007021071253 2.799819822981076 -0.371457758698890 80.000000000000000
1.157289997006349 2.799471486583138 -0.371945236072510 87.000000000000000
1.161701462545134 2.782591731906123 -0.370239065264838 98.000000000000000
1.170636272689135 2.776690507668240 -0.369995326578028 100.000000000000000
1.180907537693975 2.776652639311168 -0.370482803951648 100.000000000000000
1.193725808270518 2.779809674810722 -0.371457758698890 100.000000000000000
1.202326372498333 2.771773501635451 -0.370970281325269 100.000000000000000
1.208809074956094 2.760286231283671 -0.369995326578028 100.000000000000000
1.212662637087189 2.745579872142817 -0.368532894457166 100.000000000000000
1.227089266601684 2.752208456876288 -0.369995326578028 100.000000000000000
1.239278546366860 2.751096358997803 -0.370482803951648 100.000000000000000
1.247230859242793 2.743139559348540 -0.369995326578028 100.000000000000000
1.250878712905645 2.728380829595190 -0.368532894457166 100.000000000000000
1.261228513051395 2.725799411679656 -0.368776633143976 103.000000000000000
1.270845002326143 2.719138188059902 -0.368532894457166 100.000000000000000
1.284562715079831 2.723662679973175 -0.369751587891217 100.000000000000000
1.291408171344191 2.716028157377810 -0.369264110517597 100.000000000000000
1.293153005168037 2.695395811546996 -0.367070462336304 100.000000000000000
1.302553814041565 2.690865443905731 -0.367070462336304 100.000000000000000
1.315423316785507 2.693437221956513 -0.368045417083545 100.000000000000000
1.324347843838280 2.689060311611604 -0.368045417083545 100.000000000000000
1.332843085158479 2.682643329947866 -0.367801678396735 100.000000000000000
1.341353681270433 2.673957101276872 -0.367314201023115 100.000000000000000
1.347094280173309 2.662173652668507 -0.366339246275873 100.000000000000000
1.356378793442224 2.657455197240067 -0.366339246275873 101.000000000000000
1.369281235497690 2.659764120338620 -0.367314201023115 100.000000000000000
1.379922725819607 2.658732629681881 -0.367801678396735 100.000000000000000
1.384591995773795 2.645106031972062 -0.366582984962684 100.000000000000000
1.392889963650015 2.638501299185029 -0.366339246275873 104.000000000000000
1.405823013928491 2.640632108271761 -0.367314201023115 104.000000000000000
1.416449270883541 2.639453994367402 -0.367801678396735 100.000000000000000
1.423764520346289 2.631001875394591 -0.367314201023115 100.000000000000000
1.429136333329945 2.619045799025719 -0.366339246275873 100.000000000000000
1.436355937127966 2.610562794699323 -0.365851768902253 104.000000000000000
1.445459751069909 2.605533072372717 -0.365851768902253 101.000000000000000
1.460360260146039 2.610866558886713 -0.367314201023115 101.000000000000000
1.474340452640112 2.614398541808798 -0.368532894457166 100.000000000000000
1.473646198071458 2.591979352200291 -0.366095507589063 101.000000000000000
1.478286049463091 2.580188624472112 -0.365120552841822 101.000000000000000
1.495226351777103 2.588764460632050 -0.367070462336304 100.000000000000000
1.506251397573311 2.586960356917871 -0.367557939709925 100.000000000000000
1.512257930170456 2.576550816004440 -0.366826723649494 100.000000000000000
1.518210180538430 2.566130925543857 -0.366095507589063 100.000000000000000
1.525124899763012 2.557405874781093 -0.365608030215442 100.000000000000000
1.538709168194195 2.560842097930231 -0.366826723649494 100.000000000000000
1.550723795232283 2.560549330096294 -0.367557939709925 101.000000000000000
1.562167357604847 2.558236837706331 -0.368045417083545 100.000000000000000
1.560683198726556 2.535862520219625 -0.365608030215442 100.000000000000000
1.568479152270376 2.528712337014431 -0.365364291528632 100.000000000000000
1.580453147221147 2.528271727635674 -0.366095507589063 100.000000000000000
1.594559342611659 2.531137447989861 -0.367314201023115 100.000000000000000
1.610832653642660 2.537287158981500 -0.369020371830787 85.000000000000000
1.609612156518761 2.516880382617259 -0.366826723649494 100.000000000000000
1.619463243079068 2.512915056263550 -0.367070462336304 100.000000000000000
1.628225087252279 2.507246765063726 -0.367070462336304 101.000000000000000
1.641314946178701 2.508192141446545 -0.368045417083545 100.000000000000000
1.650060171174568 2.502447602341986 -0.368045417083545 100.000000000000000
1.654391157487559 2.490058869526419 -0.367070462336304 100.000000000000000
1.659998286654631 2.481549234538686 -0.366582984962684 104.000000000000000
1.670869346720135 2.479031847692006 -0.367070462336304 100.000000000000000
1.688868236284030 2.486027362207572 -0.369020371830787 100.000000000000000
1.693050899007235 2.473564477496916 -0.368045417083545 100.000000000000000
1.699421061618774 2.464371160414501 -0.367557939709925 101.000000000000000
1.708012968842846 2.458424060088260 -0.367557939709925 100.000000000000000
1.716584064467908 2.452447004640677 -0.367557939709925 100.000000000000000
1.729710196959876 2.452929297846974 -0.368532894457166 100.000000000000000
1.742860556765333 2.453349756770927 -0.369507849204407 100.000000000000000
1.741016152563723 2.432722555952274 -0.367314201023115 100.000000000000000
1.752131227157038 2.432072929372179 -0.368045417083545 100.000000000000000
1.764107972190926 2.430761785387333 -0.368776633143976 100.000000000000000
1.777692700447171 2.430688878904244 -0.369751587891217 100.000000000000000
1.783811690791475 2.421272365612615 -0.369264110517597 100.000000000000000
1.791069635966314 2.413436869755114 -0.369020371830787 100.000000000000000
1.794728942128813 2.400810403853039 -0.368045417083545 100.000000000000000
1.811457134565658 2.405631479026474 -0.369751587891217 100.000000000000000
1.821042952514213 2.400875261942764 -0.369995326578028 100.000000000000000
1.831404271540311 2.397978499936984 -0.370482803951648 100.000000000000000
1.834922137829974 2.385277488569791 -0.369507849204407 100.000000000000000
1.842821914000592 2.379179552420440 -0.369507849204407 100.000000000000000
1.858441888304773 2.382123170234411 -0.370970281325269 100.000000000000000
1.869198744381138 2.378743194946940 -0.371457758698890 100.000000000000000
1.877490719882625 2.372203981586959 -0.371457758698890 100.000000000000000
1.883697379155920 2.362202623428941 -0.370970281325269 100.000000000000000
1.891931528957384 2.355612901159787 -0.370970281325269 100.000000000000000
1.902228983850086 2.352413234638648 -0.371457758698890 100.000000000000000
1.916696660592556 2.353454943970449 -0.372676452132941 100.000000000000000
1.922791239467225 2.343344877839304 -0.372188974759320 98.000000000000000
1.929694780861843 2.335088605187719 -0.371945236072510 100.000000000000000
1.941643639192913 2.332915823686595 -0.372676452132941 92.000000000000000
1.944674420591478 2.320038662336994 -0.371701497385700 92.000000000000000
1.961318893415319 2.324196831524063 -0.373407668193372 87.000000000000000
1.971990949611514 2.320361634481082 -0.373895145566992 87.000000000000000
1.977496920521958 2.310447714764513 -0.373407668193372 87.000000000000000
1.982957738899866 2.300523665823956 -0.372920190819751 87.000000000000000
1.993578567218522 2.296585990042900 -0.373407668193372 90.000000000000000
2.006809068073437 2.295591212724585 -0.374382622940613 90.000000000000000
2.022680301990931 2.297511891269273 -0.375845055061475 90.000000000000000
2.024103201499004 2.283010582291567 -0.374626361627423 92.000000000000000
2.026771683961925 2.270008186599027 -0.373651406880182 92.000000000000000
2.039992166669753 2.268824155614499 -0.374626361627423 92.000000000000000
2.054561414581866 2.269046911876702 -0.375845055061475 90.000000000000000
2.070494521870178 2.270662347206589 -0.377307487182337 86.000000000000000
2.070352153489567 2.254648188770689 -0.375845055061475 87.000000000000000
2.074166521493163 2.243035186729546 -0.375113839001044 81.000000000000000
2.089708663195257 2.244862582652802 -0.376576271121906 83.000000000000000
2.100247216460356 2.240450972309153 -0.377063748495526 83.000000000000000
2.115839797689650 2.242136454612116 -0.378526180616388 81.000000000000000
2.115448710249621 2.226103250946307 -0.377063748495526 83.000000000000000
2.122220860233297 2.216900832378030 -0.376820009808716 86.000000000000000
2.132701787631715 2.212337710465705 -0.377307487182337 87.000000000000000
2.149703559671645 2.215225327724493 -0.379013657990009 92.000000000000000
2.161585273317076 2.211967209705233 -0.379744874050440 87.000000000000000
2.159163760594550 2.194880997636484 -0.378038703242767 80.000000000000000
2.169606254727678 2.190151280170963 -0.378526180616388 78.000000000000000
2.187051785318075 2.192402300506809 -0.380232351424060 88.000000000000000
2.193284519798786 2.183354224444817 -0.379988612737250 83.000000000000000
2.205127686494626 2.179871624251099 -0.380719828797681 85.000000000000000
2.209890231467896 2.169379755550719 -0.380232351424060 90.000000000000000
2.219248246040929 2.162650958268163 -0.380476090110870 92.000000000000000
2.232489830544601 2.160412982948305 -0.381451044858112 95.000000000000000
2.244989303474543 2.158892628666543 -0.382425999605353 100.000000000000000
2.256818473324464 2.155155893791603 -0.383157215665784 100.000000000000000
2.261446798038166 2.144533107937095 -0.382669738292163 100.000000000000000
2.266028495589733 2.133904303527813 -0.382182260918543 100.000000000000000
2.282535322403352 2.133718175271450 -0.383644693039404 100.000000000000000
2.289969482785262 2.125737640776701 -0.383644693039404 100.000000000000000
2.308680836866903 2.128897742020568 -0.385594602533887 100.000000000000000
2.307313821832216 2.112782384259153 -0.384132170413025 100.000000000000000
2.316143453960123 2.106050963576463 -0.384375909099835 100.000000000000000
2.324954187996867 2.099283627872209 -0.384619647786645 100.000000000000000
2.346680464777108 2.104816773060727 -0.387057034654748 100.000000000000000
2.351048597314804 2.093971936404011 -0.386569557281128 100.000000000000000
2.362804527389931 2.089697795451456 -0.387300773341559 100.000000000000000
2.362626752477107 2.074887817703351 -0.386082079907507 100.000000000000000
2.387808516133439 2.082284343619839 -0.389006944149231 100.000000000000000
2.750720274473731 2.381908446293145 -0.446773012923271 98.000000000000000
2.771059468564015 2.382645831964664 -0.448722922417753 92.000000000000000
2.770301366264547 2.365224808319955 -0.447260490296891 98.000000000000000
2.778540663965084 2.355540242176272 -0.447260490296891 98.000000000000000
2.795858082392957 2.353497253453857 -0.448722922417753 92.000000000000000
2.813194982712460 2.351361974643713 -0.450185354538615 95.000000000000000
2.822913179192058 2.342795512783800 -0.450429093225425 87.000000000000000
2.831790871370277 2.335178464143623 -0.450672831912235 92.000000000000000
2.841460837919140 2.326537030208429 -0.450916570599046 90.000000000000000
2.857266182643176 2.322865399574718 -0.452135264033097 98.000000000000000
2.873080423064811 2.319111698873213 -0.453353957467149 90.000000000000000
2.882707139556621 2.310310082563183 -0.453597696153959 95.000000000000000
2.890754064277542 2.300233481607181 -0.453597696153959 95.000000000000000
2.898765766072455 2.290128853032115 -0.453597696153959 95.000000000000000
2.912989846724467 2.284896903129947 -0.454572650901200 100.000000000000000
2.927212645969637 2.279593495398557 -0.455547605648441 95.000000000000000
2.944574717746112 2.276646998765620 -0.457010037769303 100.000000000000000
2.946205084770634 2.261519754838486 -0.456035083022062 98.000000000000000
2.957239069228052 2.253628238925173 -0.456522560395682 98.000000000000000
2.974586095543563 2.250478017406196 -0.457984992516544 95.000000000000000
2.995121526123253 2.249618396454212 -0.459934902011027 100.000000000000000
2.999773129296195 2.236776528119554 -0.459447424637406 95.000000000000000
3.005967136847174 2.225110681967122 -0.459203685950596 90.000000000000000
3.018514819901211 2.218130782426696 -0.459934902011027 98.000000000000000
3.039068994150160 2.216939798392292 -0.461884811505509 95.000000000000000
3.050004651635382 2.208646529320436 -0.462372288879130 98.000000000000000
3.067366836446409 2.204938557480368 -0.463834720999991 95.000000000000000
3.071813034429691 2.191911953827456 -0.463347243626371 95.000000000000000
3.085925153325029 2.185765505303209 -0.464322198373612 98.000000000000000
3.099651262161506 2.180088212040562 -0.465297153120853 100.000000000000000
3.117008389755651 2.176073111772181 -0.466759585241715 95.000000000000000
3.134375135994720 2.171963316751689 -0.468222017362577 95.000000000000000
3.135395311231798 2.156509314791613 -0.467247062615335 95.000000000000000
3.146182813188858 2.147790051680183 -0.467734539988956 95.000000000000000
3.163521157636146 2.143475702346878 -0.469196972109818 92.000000000000000
3.184162126246437 2.141281898707480 -0.471146881604300 92.000000000000000
3.194919438244661 2.132358040892267 -0.471634358977921 92.000000000000000
3.197378418993896 2.117904028926364 -0.470903142917490 87.000000000000000
3.211386901069309 2.111091952659754 -0.471878097664731 86.000000000000000
3.223724133711773 2.103123188570872 -0.472609313725162 92.000000000000000
3.246042881652116 2.101566976767689 -0.474802961906455 86.000000000000000
3.256699147643689 2.092369389009938 -0.475290439280075 85.000000000000000
3.263983038886926 2.080988640090911 -0.475290439280075 85.000000000000000
3.274220633667114 2.072276674600471 -0.475777916653696 86.000000000000000
3.288158532078320 2.065057909001949 -0.476752871400937 86.000000000000000
3.305455322867696 2.059866799577868 -0.478215303521799 85.000000000000000
3.316002246226622 2.050404045690260 -0.478702780895419 87.000000000000000
3.323139289790039 2.038816545993471 -0.478702780895419 86.000000000000000
3.343800957395754 2.035461654893107 -0.480652690389902 87.000000000000000
3.355983369179308 2.026855979195985 -0.481383906450333 92.000000000000000
3.371551991252339 2.020230655362704 -0.482602599884384 61.000000000000000
nan nan nan nan
5.286966426638657 3.117991136040431 -0.753640019617432 3.000000000000000
5.287537665449473 3.093502596300991 -0.752177587496570 5.000000000000000
5.305171326874563 3.079012575586475 -0.753152542243811 5.000000000000000
5.313632352075419 3.060412318708677 -0.752908803557001 5.000000000000000
5.331177318917217 3.045784574330182 -0.753883758304242 5.000000000000000
5.345230718883595 3.029114161051878 -0.754371235677863 5.000000000000000
5.345388979350335 3.004601303495416 -0.752908803557001 5.000000000000000
5.359312117406446 2.987857371445356 -0.753396280930622 5.000000000000000
5.376657866049793 2.972973970660816 -0.754371235677863 5.000000000000000
5.392224375869054 2.957051329899838 -0.755102451738294 5.000000000000000
5.383330974734566 2.927778298363424 -0.752421326183381 5.000000000000000
5.397012373848400 2.910853787130782 -0.752908803557001 5.000000000000000
5.408890719364658 2.892933188665535 -0.753152542243811 5.000000000000000
5.427724525077804 2.878685553972645 -0.754371235677863 5.000000000000000
5.423684397809347 2.852329872378701 -0.752421326183381 5.000000000000000
5.436138151928411 2.837113731713045 -0.752908803557001 5.000000000000000
5.444245375348442 2.817208475267859 -0.752665064870191 5.000000000000000
5.467388179096756 2.802622082596031 -0.754371235677863 5.000000000000000
5.466519808807231 2.778124099719903 -0.752908803557001 5.000000000000000
5.485855490487354 2.766299617950234 -0.754371235677863 5.000000000000000
5.490151460083363 2.744470744273941 -0.753640019617432 5.000000000000000
5.497919316601298 2.724408418725472 -0.753396280930622 4.000000000000000
5.518086294176269 2.710451617969646 -0.754858713051483 5.000000000000000
5.515488897013212 2.684128066064593 -0.753152542243811 5.000000000000000
5.537340434197065 2.670895961870569 -0.754858713051483 5.000000000000000
5.533631263949605 2.646523433251853 -0.753152542243811 5.000000000000000
5.523103864575851 2.617838870870449 -0.750471416688898 5.000000000000000
5.556907068528147 2.611328993196182 -0.753883758304242 5.000000000000000
5.562389365930750 2.590239870293950 -0.753396280930622 5.000000000000000
5.592124372429685 2.578004646752989 -0.756077406485535 5.000000000000000
5.584838476448475 2.551045760261023 -0.753883758304242 5.000000000000000
5.591900757128307 2.530717021568969 -0.753640019617432 5.000000000000000
5.602511892358712 2.511994381949183 -0.753883758304242 5.000000000000000
5.615817578908863 2.496800584925198 -0.754614974364673 5.000000000000000
5.615415332985766 2.473181894230239 -0.753396280930622 4.000000000000000
5.627653098776384 2.455152923709158 -0.753883758304242 5.000000000000000
5.638011136401901 2.436281212029955 -0.754127496991053 5.000000000000000
5.650130951564400 2.418148149026146 -0.754614974364673 5.000000000000000
5.656709748319740 2.397636098753579 -0.754371235677863 5.000000000000000
5.672366141455843 2.380949073347777 -0.755346190425104 4.000000000000000
5.667811249963035 2.355801000853743 -0.753640019617432 5.000000000000000
5.679671409905372 2.337513292750552 -0.754127496991053 5.000000000000000
5.693311244620259 2.319920557952529 -0.754858713051483 5.000000000000000
5.703215527642845 2.300775724105318 -0.755102451738294 5.000000000000000
5.718586050990410 2.283798706720889 -0.756077406485535 5.000000000000000
5.702130645167157 2.255331115151821 -0.752908803557001 5.000000000000000
5.726604840677193 2.241926244574374 -0.755102451738294 5.000000000000000
5.721825575713757 2.215903906984199 -0.753396280930622 4.000000000000000
5.742500973351961 2.200890469430631 -0.755102451738294 5.000000000000000
5.755716781790856 2.182943836756465 -0.755833667798725 5.000000000000000
5.739140721643979 2.153772290027842 -0.752665064870191 5.000000000000000
5.754067638371952 2.136489722388494 -0.753640019617432 5.000000000000000
5.772670447021410 2.120498101264052 -0.755102451738294 5.000000000000000
5.788998599378846 2.104735028870603 -0.756321145172345 5.000000000000000
5.790706317785733 2.082499507846530 -0.755589929111914 5.000000000000000
5.795710108553839 2.062619807482011 -0.755346190425104 5.000000000000000
5.808492183130320 2.044353568714588 -0.756077406485535 5.000000000000000
5.810321392921924 2.021094120412040 -0.755346190425104 4.000000000000000
5.834235433658889 2.006610649220040 -0.757539838606397 5.000000000000000
5.833686630392299 1.983676857477882 -0.756564883859156 6.000000000000000
5.838693785329712 1.962668898851100 -0.756321145172345 6.000000000000000
5.839857731754226 1.940398292076920 -0.755589929111914 5.000000000000000
5.859797397016387 1.924337050250436 -0.757296099919586 6.000000000000000
5.871810635495445 1.906733974394622 -0.758027315980017 7.000000000000000
5.863309241158786 1.881373885739909 -0.756077406485535 7.000000000000000
5.862271635530638 1.858496047515775 -0.755102451738294 7.000000000000000
5.844096619199007 1.830308769710967 -0.751933848809760 7.000000000000000
5.804622431597176 1.796830796707299 -0.746084120326313 9.000000000000000
5.784282232865203 1.768432548803100 -0.742671778710969 13.000000000000000
5.784413960384900 1.747519194858262 -0.741940562650538 22.000000000000000
5.773358362293831 1.722210127442387 -0.739746914469245 11.000000000000000
5.743154474431887 1.691391535581803 -0.735115879419850 10.000000000000000
5.729961794277549 1.665792322791682 -0.732678492551747 10.000000000000000
5.718855002560591 1.639855283807925 -0.730484844370454 10.000000000000000
5.709263592241775 1.615558752558326 -0.728534934875972 10.000000000000000
5.680452763133321 1.586010908993538 -0.724147638513386 10.000000000000000
5.666816183429467 1.560901231946463 -0.721710251645283 11.000000000000000
5.664567634077486 1.539028963589405 -0.720735296898042 10.000000000000000
5.658400625682964 1.516163878103509 -0.719272864777180 10.000000000000000
5.636789281013873 1.489303969250591 -0.715860523161836 11.000000000000000
5.622743660511174 1.464615019990650 -0.713423136293733 11.000000000000000
5.600903687629487 1.438067645605928 -0.710010794678389 11.000000000000000
5.590493849849621 1.414612419592783 -0.708060885183907 10.000000000000000
5.575893707932309 1.391260161316157 -0.705623498315804 10.000000000000000
5.553728222764254 1.365154320608922 -0.702211156700460 9.000000000000000
5.527356393390034 1.339250751754089 -0.698311337711495 10.000000000000000
5.518481351930425 1.316723513057712 -0.696605166903823 30.000000000000000
5.505877234710460 1.292405709892433 -0.694411518722530 71.000000000000000
5.489079526800598 1.268262989930200 -0.691730393167617 64.000000000000000
5.491537464760653 1.248654667954710 -0.691486654480807 64.000000000000000
5.459055650973666 1.221243938624865 -0.686855619431411 62.000000000000000
5.447775647861445 1.198767975491337 -0.684905709936929 68.000000000000000
5.440285814140844 1.177225359251972 -0.683443277816067 69.000000000000000
5.426483851732931 1.156404751375663 -0.681249629634774 64.000000000000000
5.418829821809432 1.135013977167215 -0.679787197513913 65.000000000000000
5.391649338218940 1.109688994824194 -0.675887378524948 65.000000000000000
5.383815689584146 1.088501544443284 -0.674424946404086 67.000000000000000
5.372191870576755 1.065671539660535 -0.672475036909604 64.000000000000000
5.362239611596836 1.044256422575480 -0.670768866101932 62.000000000000000
5.356103073654965 1.023669102134201 -0.669550172667880 60.000000000000000
5.330377367257421 0.999478954446901 -0.665894092365726 62.000000000000000
5.314310175893894 0.977276089097059 -0.663456705497623 62.000000000000000
5.311828340560216 0.957663096329563 -0.662725489437192 67.000000000000000
5.299336831320502 0.937277323507485 -0.660775579942710 65.000000000000000
5.286928666743876 0.916062229720372 -0.658825670448227 65.000000000000000
5.266608676429272 0.893616909966210 -0.655900806206504 67.000000000000000
5.250113227813311 0.871975145704431 -0.653463419338401 67.000000000000000
5.245287442986192 0.852369898592646 -0.652488464591160 64.000000000000000
5.236467875147997 0.832185855196428 -0.651026032470298 64.000000000000000
5.243263974072410 0.814511537478291 -0.651513509843918 69.000000000000000
5.212710717386547 0.791140393276217 -0.647369952168143 68.000000000000000
5.195804107229320 0.770029652360502 -0.644932565300040 72.000000000000000
5.196495709047155 0.751604059791160 -0.644688826613230 72.000000000000000
5.179303744144308 0.731591288929867 -0.642251439745127 67.000000000000000
5.170026696114792 0.711883002443705 -0.640789007624265 67.000000000000000
5.156861018851471 0.690820554812093 -0.638839098129783 65.000000000000000
3.840396497797358 0.500825304164182 -0.475534177966885 15.000000000000000
3.794773816539876 0.482083187029814 -0.469684449483438 65.000000000000000
3.792493229132646 0.468347422696029 -0.469196972109818 66.000000000000000
3.796075925176312 0.455342716361605 -0.469440710796628 77.000000000000000
3.783839802829036 0.440482402177481 -0.467734539988956 83.000000000000000
3.785279690277342 0.427932315296694 -0.467734539988956 80.000000000000000
3.782803804428051 0.414284394688001 -0.467247062615335 83.000000000000000
3.809959765706564 0.403132342175745 -0.470415665543869 70.000000000000000
3.813318538115656 0.390032629497457 -0.470659404230680 65.000000000000000
3.826377527674846 0.379225509881627 -0.472121836351541 75.000000000000000
3.859295330999565 0.368888779677343 -0.476021655340506 27.000000000000000
3.826955020584536 0.352321346737783 -0.471878097664731 11.000000000000000
3.794546481658467 0.335984223788361 -0.467734539988956 53.000000000000000
3.789818484378344 0.321570755672741 -0.467003323928525 65.000000000000000
3.755303835790874 0.305443140262562 -0.462616027565940 70.000000000000000
3.754368044635738 0.292178801241128 -0.462372288879130 75.000000000000000
3.765263234421321 0.279807392027079 -0.463590982313181 77.000000000000000
3.782011291465845 0.268444164175305 -0.465540891807663 68.000000000000000
3.786886473479943 0.255508113555854 -0.466028369181284 61.000000000000000
3.793740718695442 0.242005886079606 -0.466759585241715 56.000000000000000
3.808432827067241 0.229597990247503 -0.468465756049387 60.000000000000000
3.846828980409010 0.219112349577576 -0.473096791098782 20.000000000000000
4.912045040726433 0.262587666898364 -0.603984465915911 70.000000000000000
4.928792674801914 0.246232210555424 -0.605934375410393 84.000000000000000
4.893928996485955 0.227367739670822 -0.601547079047808 68.000000000000000
4.884813080622126 0.209004777001268 -0.600328385613756 75.000000000000000
4.875595074144548 0.191562652189207 -0.599109692179705 69.000000000000000
4.864270043388807 0.175814383752902 -0.597647260058843 72.000000000000000
4.864854115318566 0.158833841520526 -0.597647260058843 69.000000000000000
4.837599422466240 0.141041445882959 -0.594234918443499 69.000000000000000
4.836077837679944 0.124103288724080 -0.593991179756689 70.000000000000000
4.824573947951117 0.106957486771576 -0.592528747635827 67.000000000000000
4.816978921672431 0.089967651312209 -0.591553792888586 67.000000000000000
4.815278757236451 0.073122567701651 -0.591310054201776 69.000000000000000
4.797640057072896 0.056104749594810 -0.589116406020483 75.000000000000000
4.773986364148580 0.039162115244891 -0.586191541778759 75.000000000000000
4.780049191469663 0.022525617875028 -0.586922757839190 77.000000000000000
4.770172154936309 0.006660421127527 -0.585704064405139 75.000000000000000
4.762225990825618 -0.009973997375295 -0.584729109657898 75.000000000000000
4.734371303164506 -0.026441992454732 -0.581316768042553 73.000000000000000
4.726310117778972 -0.042895807734926 -0.580341813295312 72.000000000000000
4.724136219888363 -0.060193020977446 -0.580098074608502 69.000000000000000
4.725882156789242 -0.076715186776679 -0.580341813295312 75.000000000000000
4.719615140578468 -0.093917412632153 -0.579610597234881 63.000000000000000
4.701397609212362 -0.109973574270946 -0.577416949053589 75.000000000000000
4.681184979138534 -0.124216320009667 -0.574979562185486 72.000000000000000
4.680722863884458 -0.140555948213691 -0.574979562185486 75.000000000000000
4.678192294873007 -0.157643856138241 -0.574735823498675 66.000000000000000
4.675629793231253 -0.173899054444772 -0.574492084811865 20.000000000000000
4.643259068815223 -0.188927727049975 -0.570592265822901 18.000000000000000
4.634638670351081 -0.204784067274041 -0.569617311075659 21.000000000000000
4.677595641819680 -0.221408027628893 -0.574979562185486 83.000000000000000
4.668864155860291 -0.237331423883642 -0.574004607438245 73.000000000000000
4.662060764194687 -0.253304263080235 -0.573273391377814 61.000000000000000
4.643312138301265 -0.268544806717095 -0.571079743196521 58.000000000000000
4.628427253170244 -0.284708442403988 -0.569373572388849 60.000000000000000
4.619481598175190 -0.300347757747409 -0.568398617641608 70.000000000000000
4.614499266064978 -0.315394134766794 -0.567911140267987 70.000000000000000
4.613370221973446 -0.331499821671434 -0.567911140267987 70.000000000000000
4.596349137214194 -0.346407987915515 -0.565961230773505 70.000000000000000
4.585217216585013 -0.361669660397128 -0.564742537339453 71.000000000000000
4.579970041586990 -0.377346850349396 -0.564255059965833 71.000000000000000
4.578624952524985 -0.393331630330601 -0.564255059965833 71.000000000000000
4.569457615322406 -0.407009367013827 -0.563280105218592 72.000000000000000
4.556149224354750 -0.421859156125189 -0.561817673097730 72.000000000000000
4.546744957437767 -0.437000843577532 -0.560842718350489 72.000000000000000
4.533339970295072 -0.451688398237914 -0.559380286229627 72.000000000000000
4.535766487775220 -0.467125738589881 -0.559867763603248 72.000000000000000
4.534108281213098 -0.482955672409705 -0.559867763603248 75.000000000000000
4.512576283143032 -0.497395882479874 -0.557430376735145 72.000000000000000
4.498978329137429 -0.511798435434459 -0.555967944614283 72.000000000000000
4.493313175182230 -0.526252943220151 -0.555480467240662 72.000000000000000
4.491448834799695 -0.541934327101124 -0.555480467240662 72.000000000000000
4.489529767530523 -0.557609107683348 -0.555480467240662 71.000000000000000
4.467865097254836 -0.570761617476211 -0.553043080372559 72.000000000000000
4.454036348311233 -0.584803382682223 -0.551580648251698 72.000000000000000
4.450000582196840 -0.600082019893292 -0.551336909564887 70.000000000000000
4.444053380292929 -0.614291833057831 -0.550849432191267 70.000000000000000
4.434020288841731 -0.628686040242303 -0.549874477444026 70.000000000000000
4.423940952251955 -0.643017701911320 -0.548899522696784 70.000000000000000
4.409888802592815 -0.656701896318466 -0.547437090575922 67.000000000000000
4.411494435751018 -0.672689758488351 -0.547924567949543 70.000000000000000
4.407158081898414 -0.687778562050001 -0.547680829262733 71.000000000000000
4.402770165104772 -0.702845292454222 -0.547437090575922 67.000000000000000
4.384616614901475 -0.715651364566401 -0.545487181081440 70.000000000000000
4.374259655919243 -0.729645734565645 -0.544512226334199 70.000000000000000
4.369729180288457 -0.744576862580073 -0.544268487647389 71.000000000000000
4.361368735979480 -0.758043523299655 -0.543537271586958 70.000000000000000
4.364559816056789 -0.774303187011619 -0.544268487647389 71.000000000000000
4.344250253741116 -0.786351448964174 -0.542074839466096 70.000000000000000
4.335622596806735 -0.800429746734123 -0.541343623405665 71.000000000000000
4.332802161481959 -0.815559017395610 -0.541343623405665 71.000000000000000
4.329928932330193 -0.830678350727846 -0.541343623405665 71.000000000000000
4.322958947973574 -0.845780446353880 -0.540856146032044 71.000000000000000
4.304405774243026 -0.857761621246958 -0.538906236537562 75.000000000000000
4.293755599879356 -0.870453206425297 -0.537931281790321 72.000000000000000
4.292635120358784 -0.885837101727379 -0.538175020477131 77.000000000000000
4.291459535574765 -0.901223775931810 -0.538418759163942 75.000000000000000
4.280522412463196 -0.914539246557721 -0.537443804416700 72.000000000000000
4.271484535121037 -0.928210893990003 -0.536712588356269 77.000000000000000
4.252711753734730 -0.939689106536326 -0.534762678861787 77.000000000000000
4.249738651922959 -0.953044735386855 -0.534762678861787 80.000000000000000
4.238644198219281 -0.966108703245468 -0.533787724114546 73.000000000000000
4.244915537711501 -0.983137940920443 -0.535006417548597 75.000000000000000
4.197014362137565 -0.987492598001144 -0.529400427751961 40.000000000000000
4.177921648605366 -0.999174984126674 -0.527450518257478 41.000000000000000
4.174408423704560 -1.013752564926143 -0.527450518257478 43.000000000000000
4.180661047449235 -1.029964111486476 -0.528669211691530 58.000000000000000
4.175114540908179 -1.044069485128662 -0.528425473004720 46.000000000000000
4.152203641326736 -1.053753981817074 -0.525988086136617 52.000000000000000
4.163879111744323 -1.072201574121359 -0.527937995631099 42.000000000000000
nan nan nan nan
6.088322011753759 -1.614289330787699 -0.773382853249066 1.000000000000000
6.088401006783153 -1.637078064204327 -0.774114069309497 1.000000000000000
6.061582334499854 -1.652577022522532 -0.771432943754583 2.000000000000000
6.044296689284845 -1.670552885458813 -0.769970511633722 2.000000000000000
6.053720547687626 -1.695925232417362 -0.771920421128204 1.000000000000000
6.044243944089112 -1.714907098834283 -0.771432943754583 1.000000000000000
6.055391274213837 -1.740931478382935 -0.773626591935876 2.000000000000000
6.024500899290581 -1.754841132872639 -0.770457989007342 1.000000000000000
6.025954397440248 -1.778107087118394 -0.771432943754583 1.000000000000000
6.017494970866847 -1.799612593193083 -0.771189205067773 2.000000000000000
6.024475553013893 -1.824634497396204 -0.772895375875445 1.000000000000000
6.018069686856588 -1.845652725213549 -0.772895375875445 1.000000000000000
6.011590492419336 -1.866648464334889 -0.772895375875445 1.000000000000000
5.984206948511852 -1.881073418552729 -0.770214250320532 1.000000000000000
5.998412435385268 -1.908571453460868 -0.772895375875445 1.000000000000000
5.989824198911313 -1.928889710088726 -0.772651637188635 1.000000000000000
6.000041215674895 -1.955322017965974 -0.774845285369928 1.000000000000000
5.989753446143084 -1.973965460592513 -0.774357807996307 1.000000000000000
5.954579000720302 -1.985442965967557 -0.770701727694153 2.000000000000000
5.964189683397000 -2.012967500584932 -0.772895375875445 1.000000000000000
5.455533323281629 -1.862529206667215 -0.707817146497096 7.000000000000000
5.452751399983035 -1.882857065681411 -0.708304623870717 9.000000000000000
5.933412782753333 -2.072040503280666 -0.771676682441394 1.000000000000000
5.933631094922529 -2.095383372301641 -0.772651637188635 1.000000000000000
5.937497627341640 -2.120088048409663 -0.774114069309497 1.000000000000000
4.020222138595707 -1.450540258258122 -0.524769392702565 1.000000000000000
3.957322349163265 -1.443477061489398 -0.517213493411446 35.000000000000000
3.933634401667068 -1.450414407730923 -0.514776106543343 68.000000000000000
3.921107114557744 -1.461363531971988 -0.513801151796102 70.000000000000000
3.925012383989903 -1.479225589470724 -0.515019845230153 83.000000000000000
3.906839314845604 -1.487971652830663 -0.513313674422481 90.000000000000000
3.901883541902140 -1.500919017496980 -0.513313674422481 87.000000000000000
3.892920090816872 -1.513091688608047 -0.512826197048861 85.000000000000000
3.879957788765407 -1.524446084042643 -0.511851242301619 86.000000000000000
3.874612840854103 -1.537980376741782 -0.511851242301619 86.000000000000000
3.873176640112618 -1.552297571603931 -0.512338719675240 87.000000000000000
3.871414565548313 -1.567297850850554 -0.512826197048861 90.000000000000000
3.851220773176642 -1.574791406843258 -0.510876287554378 87.000000000000000
3.838361139730678 -1.585194118020538 -0.509901332807137 90.000000000000000
3.836468643973241 -1.600111123095014 -0.510388810180758 86.000000000000000
3.834518732657513 -1.615034212551942 -0.510876287554378 87.000000000000000
3.834053409234563 -1.631409273414201 -0.511607503614809 95.000000000000000
3.811920401543778 -1.637730251349923 -0.509413855433516 87.000000000000000
3.798895876748719 -1.647866500020711 -0.508438900686275 86.000000000000000
3.800394086549981 -1.664302349577231 -0.509413855433516 86.000000000000000
3.798192593163649 -1.679163379793133 -0.509901332807137 87.000000000000000
3.795933612783091 -1.694029300155629 -0.510388810180758 90.000000000000000
3.771897902731198 -1.699116112255617 -0.507951423312655 90.000000000000000
3.764136826167990 -1.711450513704044 -0.507707684625844 92.000000000000000
3.763552403950456 -1.727063168210033 -0.508438900686275 90.000000000000000
3.761103489157995 -1.741858342563593 -0.508926378059896 87.000000000000000
3.756798726757365 -1.755816937737640 -0.509170116746706 92.000000000000000
3.739874332487886 -1.763839245557869 -0.507707684625844 92.000000000000000
3.730109679531695 -1.775177016530736 -0.507220207252224 92.000000000000000
3.723890430262022 -1.788186714176664 -0.507220207252224 95.000000000000000
3.722985190233808 -1.803771222981004 -0.507951423312655 87.000000000000000
3.720233030092230 -1.818499405025944 -0.508438900686275 90.000000000000000
3.704960741756571 -1.827084443422800 -0.507220207252224 92.000000000000000
3.696783155375762 -1.839121845460754 -0.506976468565414 90.000000000000000
3.690987150322409 -1.850726537464627 -0.506976468565414 90.000000000000000
3.688047215072211 -1.865391134044035 -0.507463945939034 90.000000000000000
3.683281574101356 -1.879155595701778 -0.507707684625844 95.000000000000000
3.669639264145381 -1.888367975663728 -0.506732729878603 92.000000000000000
3.655646372113776 -1.898146115278158 -0.505757775131362 98.000000000000000
3.659549654726036 -1.916420618222825 -0.507220207252224 98.000000000000000
3.652837803154043 -1.929183154913953 -0.507220207252224 98.000000000000000
3.649585605753763 -1.943788520710729 -0.507707684625844 95.000000000000000
3.632625840308076 -1.950246458436013 -0.506245252504983 92.000000000000000
3.620559011511260 -1.960079591017196 -0.505514036444552 90.000000000000000
3.618922137607264 -1.975559238861806 -0.506245252504983 92.000000000000000
3.617221247271900 -1.991051307376499 -0.506976468565414 87.000000000000000
3.609899383248356 -2.004295712499551 -0.506976468565414 90.000000000000000
3.597684629725935 -2.013975434147580 -0.506245252504983 92.000000000000000
3.584423397598968 -2.021367565028408 -0.505270297757741 92.000000000000000
3.579071355834491 -2.034848345406260 -0.505514036444552 87.000000000000000
3.579841261170240 -2.053514666442109 -0.506732729878603 92.000000000000000
3.576088241708979 -2.067985625884714 -0.507220207252224 95.000000000000000
3.559281937094969 -2.073215175799092 -0.505757775131362 92.000000000000000
3.552023381243921 -2.085626757593667 -0.505757775131362 92.000000000000000
3.542647195743186 -2.097620176640774 -0.505514036444552 90.000000000000000
3.543826463052502 -2.115060268701243 -0.506732729878603 95.000000000000000
3.538494384512241 -2.127823383435824 -0.506976468565414 90.000000000000000
3.525952483237237 -2.137075298221692 -0.506245252504983 95.000000000000000
3.513014521508807 -2.146878788060887 -0.505514036444552 90.000000000000000
3.512259960434374 -2.163292599749522 -0.506488991191793 90.000000000000000
3.508060397167184 -2.177633373676149 -0.506976468565414 90.000000000000000
3.503803471293018 -2.191971162704240 -0.507463945939034 90.000000000000000
3.486438954710078 -2.197227772237966 -0.506001513818172 87.000000000000000
3.478747957898142 -2.209384329045814 -0.506001513818172 86.000000000000000
3.474358518316118 -2.223654152067210 -0.506488991191793 90.000000000000000
3.469911803479377 -2.237920225654937 -0.506976468565414 90.000000000000000
3.475394552125571 -2.258672762657472 -0.508926378059896 90.000000000000000
3.450882390804479 -2.259914960045416 -0.506488991191793 86.000000000000000
3.438398090649778 -2.268066939733071 -0.505757775131362 83.000000000000000
3.438726280622761 -2.285549480382190 -0.506976468565414 90.000000000000000
3.433624616354149 -2.300347438440290 -0.507463945939034 85.000000000000000
3.428864643544017 -2.314540258411682 -0.507951423312655 90.000000000000000
3.412557292004121 -2.320913326528864 -0.506732729878603 83.000000000000000
3.402797467275860 -2.331689151345545 -0.506488991191793 87.000000000000000
3.398314207490225 -2.345215428802017 -0.506976468565414 86.000000000000000
3.396626611115126 -2.361596285612599 -0.507951423312655 87.000000000000000
3.394450893034040 -2.378586360949554 -0.508926378059896 85.000000000000000
3.376397145889613 -2.383551689559186 -0.507463945939034 87.000000000000000
3.363620729506279 -2.391284493427209 -0.506732729878603 83.000000000000000
3.369778001756532 -2.413413798044710 -0.508926378059896 86.000000000000000
3.361333085626109 -2.425161815052781 -0.508926378059896 85.000000000000000
3.359270291664368 -2.441548635260559 -0.509901332807137 85.000000000000000
3.341117114300896 -2.446223684129189 -0.508438900686275 87.000000000000000
3.329362679188123 -2.455514915854500 -0.507951423312655 87.000000000000000
3.326713418641348 -2.472437617402394 -0.508926378059896 85.000000000000000
3.327597396323246 -2.491172982838610 -0.510388810180758 85.000000000000000
3.325221099335481 -2.507554135099140 -0.511363764927999 85.000000000000000
3.310124778081521 -2.514343098300832 -0.510388810180758 85.000000000000000
3.298615163929484 -2.522894098272055 -0.509901332807137 87.000000000000000
3.291361080438223 -2.535604512578207 -0.510145071493947 83.000000000000000
3.290331708156752 -2.553162813103960 -0.511363764927999 87.000000000000000
3.281399460943146 -2.564632659396018 -0.511363764927999 85.000000000000000
3.272427230912653 -2.576071256448471 -0.511363764927999 86.000000000000000
3.264970616010321 -2.588711772066216 -0.511607503614809 92.000000000000000
3.253909625001323 -2.599422099668003 -0.511363764927999 85.000000000000000
3.257189112721913 -2.620719778155750 -0.513313674422481 86.000000000000000
3.245395606815005 -2.629007540287070 -0.512826197048861 85.000000000000000
3.239275120545604 -2.642829878192153 -0.513313674422481 86.000000000000000
3.222361550245431 -2.647819625644148 -0.512094980988430 83.000000000000000
3.220745898392995 -2.665379697085500 -0.513313674422481 86.000000000000000
3.219046824651328 -2.682960674913099 -0.514532367856533 83.000000000000000
3.214223271245918 -2.698009674124656 -0.515263583916963 86.000000000000000
3.192658022076158 -2.698960508366812 -0.513313674422481 85.000000000000000
3.180194442473305 -2.707514838312489 -0.512826197048861 87.000000000000000
3.184763526584848 -2.729672478293678 -0.515019845230153 83.000000000000000
3.178221198933329 -2.743366947929621 -0.515507322603774 83.000000000000000
3.173601577730657 -2.757797453951853 -0.516238538664205 87.000000000000000
3.166943415946146 -2.771473186690615 -0.516726016037825 85.000000000000000
3.149318988618085 -2.776498173648140 -0.515507322603774 83.000000000000000
3.142576911077584 -2.790110342685098 -0.515994799977394 83.000000000000000
3.144657172161316 -2.811648012732832 -0.517944709471877 83.000000000000000
3.145150008231892 -2.831905787335380 -0.519650880279549 85.000000000000000
3.123481126938797 -2.832199737748971 -0.517700970785066 86.000000000000000
3.112109973587122 -2.841746914355459 -0.517457232098256 83.000000000000000
3.112400010294638 -2.861998521488275 -0.519163402905928 85.000000000000000
3.115499502859700 -2.884984172047154 -0.521357051087221 81.000000000000000
3.104463379643092 -2.893946101794929 -0.521113312400411 85.000000000000000
3.084211559010544 -2.895254614110513 -0.519407141592739 83.000000000000000
3.076971555954500 -2.908730243425258 -0.519894618966359 80.000000000000000
3.072550594229373 -2.924927987674249 -0.520869573713600 83.000000000000000
3.072352974361312 -2.945251397108783 -0.522575744521272 85.000000000000000
3.069194393345301 -2.962851525578834 -0.523794437955324 80.000000000000000
3.043176285138605 -2.958326387200890 -0.521113312400411 77.000000000000000
3.035668332084652 -2.971708329174567 -0.521600789774031 77.000000000000000
3.026317469975589 -2.981230482037183 -0.521600789774031 80.000000000000000
3.028576256664055 -3.004358374817791 -0.523794437955324 78.000000000000000
3.023688265718383 -3.020523523536861 -0.524769392702565 86.000000000000000
3.008927745831190 -3.026836270727046 -0.524038176642134 77.000000000000000
2.993630630169972 -3.033605359158452 -0.523306960581703 83.000000000000000
2.992748872246693 -3.053961263594361 -0.525013131389375 76.000000000000000
2.988992494003888 -3.071502553691178 -0.526231824823427 83.000000000000000
2.979632198654076 -3.083344846391732 -0.526475563510237 75.000000000000000
2.972974568057360 -3.098023761893844 -0.527206779570668 83.000000000000000
2.959403414322135 -3.105508365467970 -0.526719302197047 78.000000000000000
2.956731750513840 -3.124470740947383 -0.528181734317909 83.000000000000000
2.948526087340760 -3.137665816635105 -0.528669211691530 80.000000000000000
2.946783342792648 -3.155618540138931 -0.530131643812392 83.000000000000000
2.933050685219679 -3.162974349388523 -0.529644166438771 78.000000000000000
2.924681337331447 -3.176113901498797 -0.530131643812392 86.000000000000000
2.912237237140645 -3.184838627405327 -0.529887905125581 77.000000000000000
2.914446870284643 -3.209681171672958 -0.532325291993684 80.000000000000000
2.903225236352640 -3.219834935289231 -0.532325291993684 77.000000000000000
2.897264872642713 -3.235865124595997 -0.533300246740925 80.000000000000000
2.881994971835615 -3.241508169027847 -0.532569030680494 80.000000000000000
2.877231460257087 -3.258989074803947 -0.533787724114546 75.000000000000000
2.873689547136778 -3.277968830987689 -0.535250156235408 80.000000000000000
2.866139943088275 -3.292471684796364 -0.535981372295839 80.000000000000000
2.857225908600093 -3.305459919672101 -0.536468849669459 78.000000000000000
2.850841888317773 -3.321438646867778 -0.537443804416700 83.000000000000000
2.832792371020544 -3.323815580479678 -0.536225110982649 77.000000000000000
2.833996343988796 -3.348836728726459 -0.538662497850752 80.000000000000000
2.831228835016232 -3.369347264041649 -0.540368668658424 78.000000000000000
2.818768102524601 -3.377193427124515 -0.540124929971614 77.000000000000000
2.803162285360719 -3.382426883662731 -0.539393713911183 83.000000000000000
2.794453549495862 -3.394769161372666 -0.539881191284803 80.000000000000000
2.792636543014977 -3.416799115670347 -0.541831100779286 80.000000000000000
2.786998436538934 -3.436747859799786 -0.543293532900147 75.000000000000000
2.770005183810036 -3.440270605847124 -0.542318578152906 75.000000000000000
2.761061228851008 -3.452537976129950 -0.542806055526527 75.000000000000000
2.756399157843884 -3.471482607761638 -0.544268487647389 72.000000000000000
2.749789073848970 -3.486838917682673 -0.545243442394630 71.000000000000000
2.743719893438610 -3.504231196775518 -0.546462135828681 70.000000000000000
