# This PCD file was generated using the MATLABÂ® pcwrite function
# from Computer Vision ToolboxÂ®.
# .PCD v.7 - Point Cloud Data file format
VERSION .7
FIELDS x y z intensity
SIZE 8 8 8 8
TYPE F F F F
COUNT 1 1 1 1
WIDTH 652
HEIGHT 1
VIEWPOINT 0 0 0 1 0 0 0
POINTS 652
DATA ascii
1.324877667047096 2.686586140946980 -0.367801678396735 100.000000000000000
1.338668497128645 2.690831585211011 -0.369020371830787 100.000000000000000
1.341820354392822 2.673722950169645 -0.367314201023115 100.000000000000000
1.352041793802826 2.670793917314968 -0.367557939709925 101.000000000000000
1.358621376441132 2.662996663752589 -0.367070462336304 101.000000000000000
1.369725304137037 2.661768162737487 -0.367557939709925 100.000000000000000
1.382666110960401 2.664018380436716 -0.368532894457166 100.000000000000000
1.386433208534133 2.648623460206068 -0.367070462336304 100.000000000000000
1.395670183138339 2.643767768844081 -0.367070462336304 104.000000000000000
1.404890151941810 2.638879864006153 -0.367070462336304 101.000000000000000
1.415970948156720 2.637457759838507 -0.367557939709925 100.000000000000000
1.427058911492751 2.635990408573773 -0.368045417083545 100.000000000000000
1.428185477486080 2.617303253583918 -0.366095507589063 101.000000000000000
1.435399004458326 2.608823578980002 -0.365608030215442 100.000000000000000
1.448296373022511 2.608499410106865 -0.366339246275873 100.000000000000000
1.460301879550437 2.608624483566325 -0.367070462336304 100.000000000000000
1.470440081072281 2.607482143550045 -0.367557939709925 100.000000000000000
1.473646198071458 2.591979352200291 -0.366095507589063 100.000000000000000
1.483136379111162 2.586560759054412 -0.366095507589063 100.000000000000000
1.496129909932287 2.588242370468079 -0.367070462336304 100.000000000000000
1.505155446890302 2.583004134022373 -0.367070462336304 101.000000000000000
1.511146383757175 2.572599495353997 -0.366339246275873 100.000000000000000
1.521128614111729 2.569017059979630 -0.366582984962684 101.000000000000000
1.526017509885457 2.556873349965730 -0.365608030215442 101.000000000000000
1.540625968968438 2.562006030324729 -0.367070462336304 101.000000000000000
1.547501804778730 2.553217397587292 -0.366582984962684 100.000000000000000
1.560544143175508 2.554576117119396 -0.367557939709925 104.000000000000000
1.563207267479245 2.538970877781622 -0.366095507589063 100.000000000000000
1.573710903945727 2.537147001247301 -0.366582984962684 100.000000000000000
1.584662077040644 2.535004808135370 -0.367070462336304 100.000000000000000
1.592443139104543 2.527778274203544 -0.366826723649494 100.000000000000000
1.609768695483054 2.535611275785344 -0.368776633143976 81.000000000000000
1.612191013699609 2.519943732124386 -0.367314201023115 100.000000000000000
1.622053068843587 2.515969197508447 -0.367557939709925 100.000000000000000
1.626499760944597 2.503633248457733 -0.366582984962684 100.000000000000000
1.637403669558663 2.501262181098982 -0.367070462336304 100.000000000000000
1.654869082773912 2.508787811683742 -0.369020371830787 101.000000000000000
1.653726907680383 2.488116852085218 -0.366826723649494 100.000000000000000
1.664177304032061 2.485918377274550 -0.367314201023115 106.000000000000000
1.673954689324922 2.481739885451999 -0.367557939709925 104.000000000000000
1.686637234650894 2.482743310209940 -0.368532894457166 100.000000000000000
1.697535802050963 2.480116966179027 -0.369020371830787 100.000000000000000
1.701244225439744 2.467936517897436 -0.368045417083545 101.000000000000000
1.707583866887911 2.458722127142537 -0.367557939709925 100.000000000000000
1.720708143521218 2.459252526789957 -0.368532894457166 100.000000000000000
1.729282053691396 2.453231151865614 -0.368532894457166 100.000000000000000
1.742138793930808 2.451427428941138 -0.369264110517597 100.000000000000000
1.743751851883511 2.435646814384502 -0.367801678396735 100.000000000000000
1.753404417328480 2.431155182265577 -0.368045417083545 100.000000000000000
1.768880898148194 2.434655687677986 -0.369507849204407 100.000000000000000
1.776944781444952 2.428776480673321 -0.369507849204407 100.000000000000000
1.786589680128562 2.424156982975741 -0.369751587891217 100.000000000000000
1.793857399371223 2.416311979049362 -0.369507849204407 100.000000000000000
1.791581416177371 2.395727928403941 -0.367314201023115 100.000000000000000
1.809488205564767 2.402144136101256 -0.369264110517597 100.000000000000000
1.825061683745396 2.405301577995524 -0.370726542638459 100.000000000000000
1.835857477902798 2.402070663443282 -0.371214020012079 100.000000000000000
1.836965564888689 2.386209814049281 -0.369751587891217 100.000000000000000
1.840418186946013 2.373508098154574 -0.368776633143976 100.000000000000000
1.853579551171087 2.373327329032453 -0.369751587891217 100.000000000000000
1.871671320578964 2.379324371447371 -0.371701497385700 100.000000000000000
1.879965309701244 2.372776523645060 -0.371701497385700 100.000000000000000
1.882459733046093 2.360650584911577 -0.370726542638459 100.000000000000000
1.891931528957384 2.355612901159787 -0.370970281325269 100.000000000000000
1.903050015069233 2.351749088157023 -0.371457758698890 100.000000000000000
1.915009855661307 2.349708198859524 -0.372188974759320 100.000000000000000
1.927828020710099 2.349483305810068 -0.373163929506562 98.000000000000000
1.928430236444502 2.333558402956273 -0.371701497385700 100.000000000000000
1.939510491450501 2.329525793079151 -0.372188974759320 95.000000000000000
1.950181161485908 2.325783674250698 -0.372676452132941 92.000000000000000
1.959568544143271 2.320478754930366 -0.372920190819751 87.000000000000000
1.970228688346346 2.316648792750300 -0.373407668193372 87.000000000000000
1.975720657044178 2.306741948421600 -0.372920190819751 87.000000000000000
1.983760652324639 2.299831342852663 -0.372920190819751 87.000000000000000
1.999587364249186 2.301884450700143 -0.374382622940613 90.000000000000000
2.010224334151357 2.297878703125152 -0.374870100314234 90.000000000000000
2.024393247907415 2.298648558837089 -0.376088793748285 92.000000000000000
2.021867276425757 2.279686998648720 -0.374138884253803 92.000000000000000
2.032457258073564 2.275576538655179 -0.374626361627423 92.000000000000000
2.045698173776803 2.274371700699749 -0.375601316374664 95.000000000000000
2.054957406682040 2.268688288705273 -0.375845055061475 87.000000000000000
2.068215226170874 2.267367737805829 -0.376820009808716 85.000000000000000
2.073431424298371 2.257210657817081 -0.376332532435095 87.000000000000000
2.077253955164069 2.245587597243281 -0.375601316374664 80.000000000000000
2.090492140733455 2.244132999971164 -0.376576271121906 81.000000000000000
2.101029153414024 2.239717711247302 -0.377063748495526 81.000000000000000
2.113896472299046 2.238511211330463 -0.378038703242767 81.000000000000000
2.116225637977704 2.225364684436320 -0.377063748495526 83.000000000000000
2.125353685088868 2.219397840270040 -0.377307487182337 85.000000000000000
2.135843808413712 2.214823286589016 -0.377794964555957 87.000000000000000
2.147710801785667 2.211626605573629 -0.378526180616388 92.000000000000000
2.159581452189996 2.208374012350007 -0.379257396676819 87.000000000000000
2.160939164416674 2.195919015314081 -0.378282441929578 85.000000000000000
2.175577627734256 2.195412688758062 -0.379501135363629 78.000000000000000
2.187816944833163 2.191638741862219 -0.380232351424060 92.000000000000000
2.194046520559853 2.182588490716750 -0.379988612737250 83.000000000000000
2.205888470877393 2.179101756690233 -0.380719828797681 85.000000000000000
2.210647353207516 2.168608226187278 -0.380232351424060 90.000000000000000
2.222091613428554 2.165421811513862 -0.380963567484491 92.000000000000000
2.229636808396940 2.157652071787987 -0.380963567484491 100.000000000000000
2.243934986139102 2.157125053727785 -0.382182260918543 100.000000000000000
2.257194584611648 2.154761971838907 -0.383157215665784 100.000000000000000
2.261821055228976 2.144138378351148 -0.382669738292163 100.000000000000000
2.266400897634445 2.133508774446680 -0.382182260918543 100.000000000000000
2.279635023391404 2.131006970474409 -0.383157215665784 100.000000000000000
2.289969482785262 2.125737640776701 -0.383644693039404 100.000000000000000
2.306133208492045 2.125803877793289 -0.385107125160266 100.000000000000000
2.310611067915822 2.115060334685841 -0.384619647786645 100.000000000000000
2.319448864549408 2.108317134231148 -0.384863386473456 100.000000000000000
2.325320546696326 2.098877814844966 -0.384619647786645 100.000000000000000
2.345569799070191 2.103081974567858 -0.386813295967938 100.000000000000000
2.354379241702536 2.096201621544184 -0.387057034654748 100.000000000000000
2.362046390807965 2.087558310465923 -0.387057034654748 100.000000000000000
2.366334909893671 2.076681745381796 -0.386569557281128 100.000000000000000
2.388171906940779 2.081867560701813 -0.389006944149231 100.000000000000000
2.760141309029433 2.389223501473936 -0.448235445044132 95.000000000000000
2.771475276503022 2.382162154562397 -0.448722922417753 92.000000000000000
2.773733985589709 2.367318638170948 -0.447747967670512 95.000000000000000
2.786111619452728 2.361958607958769 -0.448479183730943 90.000000000000000
2.797376745121036 2.354775633276482 -0.448966661104563 90.000000000000000
2.815128667970398 2.352143748742269 -0.450429093225425 90.000000000000000
2.827905346134176 2.346105225396089 -0.451160309285856 95.000000000000000
2.831480993038729 2.332433282654947 -0.450429093225425 87.000000000000000
2.842678620302577 2.325048925944104 -0.450916570599046 87.000000000000000
2.851913872607625 2.316861160828000 -0.451160309285856 100.000000000000000
2.873889770707642 2.318108663344075 -0.453353957467149 90.000000000000000
2.886612300259956 2.311785475162078 -0.454085173527579 95.000000000000000
2.885341760767278 2.294282366565600 -0.452622741406718 98.000000000000000
2.896448858748287 2.286656760052233 -0.453110218780338 95.000000000000000
2.916911953543710 2.286329139675284 -0.455060128274821 98.000000000000000
2.934274666048627 2.283448124226822 -0.456522560395682 95.000000000000000
2.948510965244168 2.278046336550895 -0.457497515142924 95.000000000000000
2.948569415077449 2.261699370236856 -0.456278821708872 100.000000000000000
2.954866957277668 2.250190495900664 -0.456035083022062 98.000000000000000
2.975371479328413 2.249439553895296 -0.457984992516544 92.000000000000000
2.989555985151063 2.243806314826456 -0.458959947263785 98.000000000000000
3.003737340208020 2.238101400060363 -0.459934902011027 98.000000000000000
3.011531472231770 2.227602764783176 -0.459934902011027 92.000000000000000
3.016088815461002 2.214727143745951 -0.459447424637406 95.000000000000000
3.033426112517652 2.211201511359630 -0.460909856758268 92.000000000000000
3.050775428881805 2.207581742316173 -0.462372288879130 98.000000000000000
3.071360844129359 2.206183913740305 -0.464322198373612 92.000000000000000
3.075044820894109 2.194218015851473 -0.463834720999991 98.000000000000000
3.082685336891092 2.183470738368507 -0.463834720999991 98.000000000000000
3.103279519049340 2.181830631521160 -0.465784630494474 95.000000000000000
3.114132380837426 2.173256965028312 -0.466272107868094 95.000000000000000
3.128226829171263 2.166894803106612 -0.467247062615335 95.000000000000000
3.135771645354017 2.155962052233551 -0.467247062615335 92.000000000000000
3.146557625348284 2.147240906480660 -0.467734539988956 95.000000000000000
3.160608052674152 2.140697117042820 -0.468709494736197 95.000000000000000
3.177945971000051 2.136296272664459 -0.470171926857059 92.000000000000000
3.201896810130901 2.136207212293272 -0.472609313725162 92.000000000000000
3.202713461505762 2.120633753131659 -0.471634358977921 92.000000000000000
3.213414271727268 2.111621578289907 -0.472121836351541 92.000000000000000
3.227416668345340 2.104729216583145 -0.473096791098782 92.000000000000000
3.239743485982106 2.096686234196247 -0.473828007159213 86.000000000000000
3.256699147643689 2.092369389009938 -0.475290439280075 85.000000000000000
3.260635363975247 2.078854292767740 -0.474802961906455 86.000000000000000
3.274582264305887 2.071705183735852 -0.475777916653696 86.000000000000000
3.288518902592537 2.064483985625109 -0.476752871400937 85.000000000000000
3.305814787098959 2.059289857420615 -0.478215303521799 87.000000000000000
3.319737207471121 2.051912661326474 -0.479190258269040 87.000000000000000
3.333648323414256 2.044463309528040 -0.480165213016281 90.000000000000000
3.337372883323572 2.030750478908040 -0.479677735642660 87.000000000000000
3.358036482341244 2.027296178338255 -0.481627645137143 87.000000000000000
3.375310500843182 2.021682220368127 -0.483090077258005 50.000000000000000
nan nan nan nan
5.268157684499904 3.106898670808722 -0.750958894062519 4.000000000000000
5.289251060674829 3.094505027472832 -0.752421326183381 5.000000000000000
5.313755746497338 3.083994796582570 -0.754371235677863 6.000000000000000
5.312979789214194 3.057567179887541 -0.752665064870191 5.000000000000000
5.315000470369258 3.034082126579641 -0.751446371436139 5.000000000000000
5.330214298606360 3.019375499635669 -0.752177587496570 5.000000000000000
5.337260154271295 2.998806433228276 -0.751690110122950 5.000000000000000
5.347695425776105 2.980157648762338 -0.751690110122950 5.000000000000000
5.363277663308827 2.964353361891434 -0.752421326183381 5.000000000000000
5.389774486507993 2.953261116977655 -0.754614974364673 5.000000000000000
5.394817848224605 2.931585861516306 -0.753883758304242 5.000000000000000
5.392278324026952 2.907085714783264 -0.752177587496570 5.000000000000000
5.404143708732899 2.889181358666685 -0.752421326183381 5.000000000000000
5.429478232517247 2.879615662390730 -0.754614974364673 5.000000000000000
5.430712171567442 2.856025797059464 -0.753396280930622 5.000000000000000
5.444168792364476 2.838887359373349 -0.753883758304242 5.000000000000000
5.445228434918249 2.815307903530573 -0.752665064870191 5.000000000000000
5.455510479667789 2.795331233746526 -0.752665064870191 5.000000000000000
5.470544259495576 2.778968072644936 -0.753396280930622 5.000000000000000
5.488593578522367 2.765277702196950 -0.754614974364673 5.000000000000000
5.498212760656697 2.746102088236427 -0.754614974364673 5.000000000000000
5.499345059805511 2.721529341578486 -0.753396280930622 4.000000000000000
5.523069147083033 2.709310489617198 -0.755346190425104 5.000000000000000
5.526667878391665 2.688375420661776 -0.754614974364673 5.000000000000000
5.536018389506457 2.669067371107546 -0.754614974364673 5.000000000000000
5.535884053777619 2.646413759601960 -0.753396280930622 5.000000000000000
5.546881981519842 2.627923705879139 -0.753640019617432 5.000000000000000
5.550630647261019 2.606014533960446 -0.752908803557001 5.000000000000000
5.559693519240700 2.586623340503856 -0.752908803557001 5.000000000000000
5.582661325833524 2.574823653063046 -0.754858713051483 5.000000000000000
5.580782161775486 2.550370268546987 -0.753396280930622 4.000000000000000
5.579241214663915 2.524987713952222 -0.751933848809760 4.000000000000000
5.602511892358712 2.511994381949183 -0.753883758304242 5.000000000000000
5.601740984938184 2.489371253507144 -0.752665064870191 5.000000000000000
5.619480575541291 2.473801394631181 -0.753883758304242 5.000000000000000
5.628081518081737 2.454170675562691 -0.753883758304242 5.000000000000000
5.631146751456594 2.432148743739067 -0.753152542243811 5.000000000000000
5.648727797986202 2.416381241244812 -0.754371235677863 5.000000000000000
5.664439441208505 2.399746226060533 -0.755346190425104 4.000000000000000
5.676026913409024 2.382485665198921 -0.755833667798725 5.000000000000000
5.680642646712628 2.361134314891899 -0.755346190425104 5.000000000000000
5.674979103972167 2.333265997129167 -0.753396280930622 5.000000000000000
5.695959295202792 2.318681520772468 -0.755102451738294 5.000000000000000
5.709541883714340 2.301010852806573 -0.755833667798725 5.000000000000000
5.715695353326497 2.280331223087237 -0.755589929111914 5.000000000000000
5.716235056155468 2.257449229383443 -0.754614974364673 5.000000000000000
5.731475651696500 2.240372895978442 -0.755589929111914 5.000000000000000
5.718509737733384 2.213472094464898 -0.752908803557001 5.000000000000000
5.735470055683211 2.197047782512528 -0.754127496991053 5.000000000000000
5.752004613598795 2.181535940054268 -0.755346190425104 5.000000000000000
5.765160142014127 2.163536801705429 -0.756077406485535 5.000000000000000
5.760023660173029 2.137557361342324 -0.754371235677863 5.000000000000000
5.763723089054928 2.116069807841930 -0.753883758304242 5.000000000000000
5.787500124940628 2.103046661207097 -0.756077406485535 5.000000000000000
5.796673955311720 2.083503151227752 -0.756321145172345 5.000000000000000
5.794199712018267 2.060942984322041 -0.755102451738294 5.000000000000000
5.795740603051041 2.038728746284658 -0.754371235677863 4.000000000000000
5.803173988579628 2.017472601314493 -0.754371235677863 4.000000000000000
5.832708284640336 2.004947052501531 -0.757296099919586 5.000000000000000
5.839671321051720 1.984574886249608 -0.757296099919586 6.000000000000000
5.842799724827320 1.962914181618205 -0.756808622545966 6.000000000000000
5.845848109073319 1.941255833477154 -0.756321145172345 5.000000000000000
5.860133167939315 1.923314293365520 -0.757296099919586 6.000000000000000
5.879695929846963 1.908160193896707 -0.759002270727258 7.000000000000000
5.878759725052874 1.885199905401117 -0.758027315980017 7.000000000000000
5.862271635530638 1.858496047515775 -0.755102451738294 7.000000000000000
5.842202260489380 1.829715476754821 -0.751690110122950 7.000000000000000
5.793557440436513 1.792297610838329 -0.744621688205451 8.000000000000000
5.780793885513737 1.766262867201645 -0.742184301337348 12.000000000000000
5.789129301796423 1.745636426197605 -0.742428040024159 19.000000000000000
5.768551648130669 1.717487607045323 -0.739015698408814 11.000000000000000
5.743744531551647 1.689386693476461 -0.735115879419850 11.000000000000000
5.736262021097228 1.665452558505026 -0.733409708612177 9.000000000000000
5.726774278849163 1.641044460514810 -0.731459799117695 9.000000000000000
5.721006588513621 1.617803281725388 -0.729997366996833 10.000000000000000
5.684553607217150 1.586086452718739 -0.724635115887007 11.000000000000000
5.670916346461601 1.560965800917672 -0.722197729018904 10.000000000000000
5.664567634077486 1.539028963589405 -0.720735296898042 10.000000000000000
5.654565721836346 1.515136318714757 -0.718785387403560 3.000000000000000
3.713888342585042 0.980558213591835 -0.471634358977921 28.000000000000000
3.665419361316888 0.954087117304568 -0.465053414434043 50.000000000000000
3.666640347514395 0.941433230405254 -0.464809675747232 66.000000000000000
3.662206470314571 0.926680700339093 -0.463834720999991 65.000000000000000
3.673123384510165 0.915812517656505 -0.464809675747232 55.000000000000000
3.697503491875894 0.908193965110676 -0.467490801302146 52.000000000000000
3.725576401913140 0.902000110153630 -0.470659404230680 48.000000000000000
3.740288089909472 0.891752194346277 -0.472121836351541 50.000000000000000
3.758992554193489 0.881663743900365 -0.474071745846024 50.000000000000000
3.800731524242967 0.877468011955878 -0.478946519582230 100.000000000000000
3.813450111232537 0.866394608333628 -0.480165213016281 25.000000000000000
3.787391887163645 0.846582387890885 -0.476509132714127 67.000000000000000
3.749609460013017 0.824405107021089 -0.471390620291110 53.000000000000000
3.715599372354359 0.803341019583136 -0.466759585241715 57.000000000000000
3.720046371803077 0.792077576424476 -0.467003323928525 68.000000000000000
3.709187572620947 0.776241013095774 -0.465297153120853 83.000000000000000
3.694507425930321 0.759045468637033 -0.463103504939560 75.000000000000000
3.704917921878452 0.747715437448349 -0.464078459686802 57.000000000000000
3.715294241016075 0.736321957024254 -0.465053414434043 56.000000000000000
3.743173057023147 0.728277150288888 -0.468222017362577 56.000000000000000
3.767140939012346 0.719302005841503 -0.470903142917490 31.000000000000000
nan nan nan nan
5.318385496972660 0.977065927981477 -0.663944182871243 67.000000000000000
5.313949061140221 0.957087863347788 -0.662969228124002 55.000000000000000
5.305364777896989 0.937388570600097 -0.661506796003140 64.000000000000000
5.291000484384725 0.915816601372702 -0.659313147821848 65.000000000000000
5.270834757379567 0.892441248250110 -0.656388283580124 65.000000000000000
5.250417284697706 0.870142457379326 -0.653463419338401 63.000000000000000
5.257341663717505 0.852445221483233 -0.653950896712021 69.000000000000000
5.240679240369848 0.830979690514380 -0.651513509843918 63.000000000000000
5.239482816441011 0.812987651360924 -0.651026032470298 67.000000000000000
5.214811386983848 0.790528118159511 -0.647613690854954 72.000000000000000
5.199865814718463 0.769704149292067 -0.645420042673661 69.000000000000000
5.188768016647782 0.749561819051857 -0.643713871865989 75.000000000000000
5.191225123605626 0.732351122900107 -0.643713871865989 72.000000000000000
5.170150864392969 0.710980651723056 -0.640789007624265 67.000000000000000
5.155013948663768 0.689657274289111 -0.638595359442973 72.000000000000000
5.139673670862674 0.669351491328897 -0.636401711261680 75.000000000000000
5.135957134574208 0.651554551320822 -0.635670495201249 76.000000000000000
5.124409012879108 0.631922071239455 -0.633964324393577 75.000000000000000
5.118699593501064 0.613086396364146 -0.632989369646336 75.000000000000000
5.093203042981271 0.592006358700631 -0.629577028030992 73.000000000000000
5.083302806131361 0.573777514008412 -0.628114595910130 73.000000000000000
5.073434706555838 0.554735381901055 -0.626652163789268 70.000000000000000
5.083330271464311 0.536970717350716 -0.627627118536510 77.000000000000000
5.069375081831430 0.517610190966092 -0.625677209042027 70.000000000000000
5.045382392987094 0.498260518053022 -0.622508606113493 72.000000000000000
5.039186302608592 0.479893037896233 -0.621533651366252 69.000000000000000
5.021062777781017 0.460487129968277 -0.619096264498149 69.000000000000000
5.028571839281889 0.443480722834232 -0.619827480558580 72.000000000000000
5.026207415322624 0.424712818985631 -0.619340003184959 70.000000000000000
4.997980101594378 0.404761919120722 -0.615683922882805 72.000000000000000
4.973566105669307 0.386188005197930 -0.612515319954271 75.000000000000000
4.970924534084160 0.368531133482978 -0.612027842580651 75.000000000000000
4.970200503670232 0.351037268020061 -0.611784103893840 76.000000000000000
4.957531122441251 0.332755293853751 -0.610077933086168 75.000000000000000
4.938851575445850 0.314187972888611 -0.607640546218065 75.000000000000000
4.924066082754067 0.295993353399029 -0.605690636723583 73.000000000000000
4.925069293276366 0.278803351865808 -0.605690636723583 75.000000000000000
4.910154103062833 0.260767748120999 -0.603740727229101 72.000000000000000
4.924913017389331 0.244315011423291 -0.605446898036773 79.000000000000000
4.890042093763578 0.225476554115017 -0.601059601674187 68.000000000000000
4.884849484437094 0.208152213106257 -0.600328385613756 77.000000000000000
4.873644858433905 0.190634109245431 -0.598865953492895 70.000000000000000
4.864300654700270 0.174965405799773 -0.597647260058843 72.000000000000000
4.868849855749414 0.158113623845367 -0.598134737432464 67.000000000000000
4.829711283610578 0.139124161955314 -0.593259963696258 69.000000000000000
4.820245210044678 0.122013316271886 -0.592041270262207 67.000000000000000
4.816635529279045 0.106781497488529 -0.591553792888586 67.000000000000000
4.818963667828867 0.090004720801831 -0.591797531575396 69.000000000000000
4.813293893775100 0.073092426494849 -0.591066315514965 70.000000000000000
4.793670143910236 0.056058324481368 -0.588628928646862 75.000000000000000
4.773986364148580 0.039162115244891 -0.586191541778759 72.000000000000000
4.768138769896234 0.022469490920190 -0.585460325718329 76.000000000000000
4.762232881458075 0.005818167941753 -0.584729109657898 75.000000000000000
4.762224177501840 -0.010805162451802 -0.584729109657898 75.000000000000000
4.738326919724711 -0.028945152061238 -0.581804245416174 73.000000000000000
4.728272010559291 -0.045389547158061 -0.580585551982123 69.000000000000000
4.730091013442845 -0.060268894533300 -0.580829290668933 77.000000000000000
4.711988341124594 -0.076489648638318 -0.578635642487640 69.000000000000000
4.721616166624394 -0.093132830859823 -0.579854335921692 67.000000000000000
4.697447616603580 -0.109060872784044 -0.576929471679968 77.000000000000000
4.681163228002431 -0.125033339021406 -0.574979562185486 70.000000000000000
4.674745698517856 -0.141193098844929 -0.574248346125055 69.000000000000000
4.678164709576851 -0.158460352318912 -0.574735823498675 65.000000000000000
4.673615663070214 -0.174640977085563 -0.574248346125055 21.000000000000000
4.657176228420638 -0.188679826330005 -0.572298436630573 21.000000000000000
4.632691168734256 -0.203887886341467 -0.569373572388849 22.000000000000000
4.671608360063992 -0.221941810285606 -0.574248346125055 79.000000000000000
4.664857632739899 -0.237944043402515 -0.573517130064624 73.000000000000000
4.659989929321481 -0.254823224528684 -0.573029652691003 64.000000000000000
4.637272893936199 -0.269819689345071 -0.570348527136090 60.000000000000000
4.624464558604174 -0.284464685175902 -0.568886095015228 63.000000000000000
4.619481598175190 -0.300347757747409 -0.568398617641608 70.000000000000000
4.618405045386822 -0.316470927904357 -0.568398617641608 68.000000000000000
4.609352369358570 -0.332019761273448 -0.567423662894367 68.000000000000000
4.596349137214194 -0.346407987915515 -0.565961230773505 70.000000000000000
4.581259325159389 -0.361357472515905 -0.564255059965833 72.000000000000000
4.576013264013266 -0.377020848750822 -0.563767582592212 72.000000000000000
4.574669337015245 -0.392991818986903 -0.563767582592212 71.000000000000000
4.577224074362859 -0.409311617690017 -0.564255059965833 75.000000000000000
4.552048543353440 -0.423082108251057 -0.561330195724109 72.000000000000000
4.542640298176434 -0.438206715253512 -0.560355240976868 72.000000000000000
4.537132510541505 -0.453665812096575 -0.559867763603248 75.000000000000000
4.527623114519252 -0.468683007031439 -0.558892808856006 75.000000000000000
4.531880968947134 -0.485118371154003 -0.559624024916437 77.000000000000000
4.508629998680292 -0.496960905757111 -0.556942899361524 75.000000000000000
4.495033587068916 -0.511349686258277 -0.555480467240662 75.000000000000000
4.497164409888896 -0.527499682454911 -0.555967944614283 75.000000000000000
4.493324937559685 -0.542956363302369 -0.555724205927473 77.000000000000000
4.485492551431582 -0.557902636891279 -0.554992989867042 72.000000000000000
4.467765412511175 -0.571541398343876 -0.553043080372559 71.000000000000000
4.446061594003499 -0.584545697621271 -0.550605693504456 72.000000000000000
4.451863019863556 -0.601124313969726 -0.551580648251698 71.000000000000000
4.445912446287296 -0.615339611076080 -0.551093170878077 71.000000000000000
4.445702810040658 -0.631134008708157 -0.551336909564887 70.000000000000000
4.421864257175030 -0.643503940772953 -0.548655784009974 71.000000000000000
4.405847339164319 -0.656886097125323 -0.546949613202302 67.000000000000000
4.403527536850034 -0.672261372400141 -0.546949613202302 68.000000000000000
4.405076676160689 -0.688241315969082 -0.547437090575922 70.000000000000000
4.404607645423177 -0.703926984237558 -0.547680829262733 71.000000000000000
4.380573420299419 -0.715776384302137 -0.544999703707820 70.000000000000000
4.370343577444830 -0.728992515465766 -0.544024748960578 70.000000000000000
4.371686067516531 -0.744910304972630 -0.544512226334199 70.000000000000000
4.365147788748933 -0.759485256538058 -0.544024748960578 70.000000000000000
4.358561073105281 -0.774023647188601 -0.543537271586958 70.000000000000000
4.342159655162520 -0.786755735477799 -0.541831100779286 71.000000000000000
4.335482829427021 -0.801186443433420 -0.541343623405665 71.000000000000000
4.328758213964327 -0.815580133607808 -0.540856146032044 71.000000000000000
4.329783885659888 -0.831434053234519 -0.541343623405665 72.000000000000000
4.319062635266973 -0.845018138605927 -0.540368668658424 72.000000000000000
4.304405774243026 -0.857761621246958 -0.538906236537562 72.000000000000000
4.289712715850731 -0.870413104544412 -0.537443804416700 75.000000000000000
4.290536389064814 -0.886184760748051 -0.537931281790321 75.000000000000000
4.291459535574765 -0.901223775931810 -0.538418759163942 75.000000000000000
4.280522412463196 -0.914539246557721 -0.537443804416700 75.000000000000000
4.267604894308032 -0.927367832324254 -0.536225110982649 77.000000000000000
4.254650090905986 -0.940117406037937 -0.535006417548597 72.000000000000000
4.251342547967787 -0.954963178882086 -0.535006417548597 75.000000000000000
4.246047903897243 -0.969355494700675 -0.534762678861787 77.000000000000000
4.242638353390943 -0.984171062180125 -0.534762678861787 77.000000000000000
4.196669406504346 -0.988957572197360 -0.529400427751961 37.000000000000000
4.183538897328511 -1.001290342544197 -0.528181734317909 43.000000000000000
4.174231426924996 -1.014481121195275 -0.527450518257478 45.000000000000000
4.180301267457645 -1.031423374711595 -0.528669211691530 61.000000000000000
4.174749837550357 -1.045526811398449 -0.528425473004720 43.000000000000000
4.147987703824897 -1.054225364477245 -0.525500608762996 51.000000000000000
4.163504589119635 -1.073654976772687 -0.527937995631099 43.000000000000000
nan nan nan nan
6.065015753202415 -1.609242803489049 -0.770457989007342 1.000000000000000
6.066744137108022 -1.633525876181818 -0.771432943754583 1.000000000000000
6.045685030915262 -1.650510335306325 -0.769483034260101 2.000000000000000
6.059311153013049 -1.675841046882709 -0.771920421128204 1.000000000000000
6.053424460693960 -1.696981780137107 -0.771920421128204 1.000000000000000
6.049373533782207 -1.718644337573235 -0.772164159815014 2.000000000000000
6.043337490639270 -1.739750121290706 -0.772164159815014 2.000000000000000
6.033416430142143 -1.759723068629571 -0.771676682441394 2.000000000000000
6.017718398602704 -1.777960562637221 -0.770457989007342 1.000000000000000
6.041903717477626 -1.808061241751839 -0.774357807996307 3.000000000000000
6.012758408322250 -1.822231471696233 -0.771432943754583 1.000000000000000
6.010156490459490 -1.844373558591895 -0.771920421128204 1.000000000000000
6.009368909271052 -1.867108663103505 -0.772651637188635 1.000000000000000
5.993346710382267 -1.885095865583548 -0.771432943754583 1.000000000000000
6.003753861044735 -1.911424984727390 -0.773626591935876 1.000000000000000
5.989487452919294 -1.929935102243614 -0.772651637188635 1.000000000000000
5.994037981551559 -1.954522981040236 -0.774114069309497 1.000000000000000
5.975868114028083 -1.971702242046743 -0.772651637188635 2.000000000000000
5.961417384698141 -1.990035643699635 -0.771676682441394 2.000000000000000
5.963838263452772 -2.014008417392285 -0.772895375875445 0.000000000000000
5.457086682729249 -1.864123043163104 -0.708060885183907 7.000000000000000
5.461804015544161 -1.887049961709153 -0.709523317304769 8.000000000000000
5.951790949029186 -2.079623982058141 -0.774114069309497 1.000000000000000
5.938880368723248 -2.098402947075218 -0.773382853249066 1.000000000000000
5.925911275888073 -2.117117143157722 -0.772651637188635 1.000000000000000
4.008513379695954 -1.447897202775549 -0.523306960581703 1.000000000000000
3.954953574951271 -1.444177445011556 -0.516969754724636 40.000000000000000
3.929403318978988 -1.450412618086188 -0.514288629169722 68.000000000000000
3.924316494851309 -1.464119958932551 -0.514288629169722 70.000000000000000
3.917324422007207 -1.477109076308962 -0.514044890482912 86.000000000000000
3.906579555297175 -1.488653502258002 -0.513313674422481 87.000000000000000
3.905064379290479 -1.503707607884480 -0.513801151796102 90.000000000000000
3.888691692924303 -1.513010890146877 -0.512338719675240 87.000000000000000
3.875996719195704 -1.523670742878131 -0.511363764927999 87.000000000000000
3.878034205393045 -1.540121988065578 -0.512338719675240 90.000000000000000
3.868949835954826 -1.552171212405196 -0.511851242301619 90.000000000000000
3.865347942147443 -1.566412466939338 -0.512094980988430 92.000000000000000
3.854345136886023 -1.577639586750321 -0.511363764927999 90.000000000000000
3.837807568762730 -1.586533862213160 -0.509901332807137 87.000000000000000
3.835909866103634 -1.601450205773212 -0.510388810180758 87.000000000000000
3.833954745765896 -1.616372613673536 -0.510876287554378 90.000000000000000
3.837421563912167 -1.633633518041410 -0.512094980988430 92.000000000000000
3.818929499904062 -1.641531217249544 -0.510388810180758 90.000000000000000
3.806468533087712 -1.650362030133219 -0.509413855433516 86.000000000000000
3.798865994890519 -1.662843030798942 -0.509170116746706 92.000000000000000
3.794854165216392 -1.676895759620186 -0.509413855433516 90.000000000000000
3.798042126791761 -1.694175434585252 -0.510632548867568 92.000000000000000
3.775517766361458 -1.700746741921889 -0.508438900686275 87.000000000000000
3.767750975785049 -1.713093769118066 -0.508195161999465 98.000000000000000
3.759944012383869 -1.725407307070810 -0.507951423312655 90.000000000000000
3.755699604834492 -1.739355672531174 -0.508195161999465 95.000000000000000
3.751403611304865 -1.753295419875882 -0.508438900686275 90.000000000000000
3.738078905539980 -1.762992467235470 -0.507463945939034 90.000000000000000
3.733694599934898 -1.776883097277042 -0.507707684625844 95.000000000000000
3.731048316720960 -1.791623882296177 -0.508195161999465 92.000000000000000
3.723299950995840 -1.803121412015570 -0.507951423312655 87.000000000000000
3.720550361448862 -1.817850074178746 -0.508438900686275 87.000000000000000
3.708521492109053 -1.828840411172366 -0.507707684625844 95.000000000000000
3.693228556187899 -1.837353459070888 -0.506488991191793 90.000000000000000
3.690340900035078 -1.852014822254193 -0.506976468565414 86.000000000000000
3.687395846054220 -1.866678391709206 -0.507463945939034 90.000000000000000
3.684393343733499 -1.881343945217602 -0.507951423312655 90.000000000000000
3.668979875818271 -1.889648806342154 -0.506732729878603 92.000000000000000
3.659169886689307 -1.899975653702522 -0.506245252504983 98.000000000000000
3.656032547897852 -1.914578791583495 -0.506732729878603 92.000000000000000
3.652837803154043 -1.929183154913953 -0.507220207252224 92.000000000000000
3.649585605753763 -1.943788520710729 -0.507707684625844 100.000000000000000
3.630196205146735 -1.950574781994261 -0.506001513818172 90.000000000000000
3.621619953112350 -1.962288966516572 -0.505757775131362 92.000000000000000
3.618232316878199 -1.976822360611693 -0.506245252504983 95.000000000000000
3.616526018894497 -1.992313834459837 -0.506976468565414 87.000000000000000
3.615456233969670 -2.006555538035694 -0.507707684625844 95.000000000000000
3.594571432787947 -2.011408781794237 -0.505757775131362 92.000000000000000
3.587175107025129 -2.024570034460016 -0.505757775131362 95.000000000000000
3.583536869949811 -2.039042727856991 -0.506245252504983 95.000000000000000
3.578477534830271 -2.051902394003326 -0.506488991191793 90.000000000000000
3.576449118820765 -2.067361449249062 -0.507220207252224 92.000000000000000
3.565055089169039 -2.079078678564068 -0.506732729878603 92.000000000000000
3.547508278809390 -2.085474271714383 -0.505270297757741 92.000000000000000
3.546063441833585 -2.099642954053157 -0.506001513818172 87.000000000000000
3.542121880819191 -2.114042923694652 -0.506488991191793 90.000000000000000
3.534349734414861 -2.127011249768820 -0.506488991191793 87.000000000000000
3.521811771063040 -2.136246924420486 -0.505757775131362 98.000000000000000
3.512639766969510 -2.147491892059647 -0.505514036444552 87.000000000000000
3.511882341156016 -2.163905571802534 -0.506488991191793 90.000000000000000
3.508060397167184 -2.177633373676149 -0.506976468565414 90.000000000000000
3.503803471293018 -2.191971162704240 -0.507463945939034 87.000000000000000
3.489413847907407 -2.199953613109498 -0.506488991191793 90.000000000000000
3.471660247795484 -2.205733279095543 -0.505026559070931 85.000000000000000
3.475253703637322 -2.225937473476031 -0.506732729878603 92.000000000000000
3.469130410569432 -2.239131317002936 -0.506976468565414 90.000000000000000
3.477934081464903 -2.262050408120305 -0.509413855433516 85.000000000000000
3.453413911743120 -2.263295653355970 -0.506976468565414 86.000000000000000
3.442576209497811 -2.272547896877247 -0.506488991191793 85.000000000000000
3.437928263866781 -2.286749683027612 -0.506976468565414 87.000000000000000
3.436521082569394 -2.303157007372864 -0.507951423312655 86.000000000000000
3.435041166472769 -2.319582317218389 -0.508926378059896 87.000000000000000
3.417075904734680 -2.324858835468005 -0.507463945939034 85.000000000000000
3.402390458922117 -2.332283016024698 -0.506488991191793 86.000000000000000
3.400762188318852 -2.348657676646972 -0.507463945939034 86.000000000000000
3.399060978694648 -2.365049332970521 -0.508438900686275 90.000000000000000
3.394450893034040 -2.378586360949554 -0.508926378059896 85.000000000000000
3.376397145889613 -2.383551689559186 -0.507463945939034 86.000000000000000
3.367638313619161 -2.395910793876991 -0.507463945939034 86.000000000000000
3.362481456985563 -2.409964274212980 -0.507951423312655 85.000000000000000
3.363705196335065 -2.428659069536283 -0.509413855433516 87.000000000000000
3.351996376774917 -2.438050498206028 -0.508926378059896 85.000000000000000
3.337060464386399 -2.445043314255165 -0.507951423312655 90.000000000000000
3.334894025840144 -2.461392243859266 -0.508926378059896 87.000000000000000
3.326713418641348 -2.472437617402394 -0.508926378059896 86.000000000000000
3.327597396323246 -2.491172982838610 -0.510388810180758 85.000000000000000
3.322051203149270 -2.505163711710104 -0.510876287554378 85.000000000000000
3.310124778081521 -2.514343098300832 -0.510388810180758 85.000000000000000
3.295021654833823 -2.521057281790426 -0.509413855433516 85.000000000000000
3.292490829028002 -2.537390668227650 -0.510388810180758 86.000000000000000
3.286304499032103 -2.551876203591391 -0.510876287554378 87.000000000000000
3.282067669320769 -2.567000891360258 -0.511607503614809 83.000000000000000
3.265739292370544 -2.571729794653669 -0.510388810180758 85.000000000000000
3.259852930811634 -2.585580841569929 -0.510876287554378 87.000000000000000
3.257011540754423 -2.601900099763016 -0.511851242301619 85.000000000000000
3.254095865701285 -2.618230965450948 -0.512826197048861 86.000000000000000
3.248021249608672 -2.632073523620000 -0.513313674422481 87.000000000000000
3.235738013790464 -2.640884851282188 -0.512826197048861 86.000000000000000
3.220827822710807 -2.646559359282586 -0.511851242301619 87.000000000000000
3.213099303192632 -2.659051635126607 -0.512094980988430 81.000000000000000
3.217053840583403 -2.682251254579685 -0.514288629169722 86.000000000000000
3.213752330772246 -2.698570620818546 -0.515263583916963 86.000000000000000
3.191142040109360 -2.697678950670531 -0.513069935735671 83.000000000000000
3.186240439512228 -2.712662204925250 -0.513801151796102 86.000000000000000
3.182303724535521 -2.729491631227221 -0.514776106543343 87.000000000000000
3.181770146188839 -2.748369063284496 -0.516238538664205 86.000000000000000
3.175634613200420 -2.761510280225857 -0.516726016037825 85.000000000000000
3.157015487522119 -2.764731569363384 -0.515263583916963 85.000000000000000
3.157767213710739 -2.784925940974636 -0.516969754724636 83.000000000000000
3.146542551650357 -2.794613424966561 -0.516726016037825 87.000000000000000
3.144166399115647 -2.812196816121205 -0.517944709471877 81.000000000000000
3.141705741087740 -2.829797589492837 -0.519163402905928 86.000000000000000
3.129858584295552 -2.836987227074640 -0.518675925532308 86.000000000000000
3.115538175810391 -2.843880298640952 -0.517944709471877 81.000000000000000
3.113361436045460 -2.863885610461320 -0.519407141592739 81.000000000000000
3.112083358518581 -2.882829869557188 -0.520869573713600 80.000000000000000
3.095247415859090 -2.886364910617214 -0.519650880279549 80.000000000000000
3.085153264792512 -2.897151755667072 -0.519650880279549 85.000000000000000
3.073579204319911 -2.906539367707694 -0.519407141592739 83.000000000000000
3.070602503208265 -2.924095245916896 -0.520625835026790 85.000000000000000
3.075733451289183 -2.947462061252300 -0.523063221894893 85.000000000000000
3.063997713090745 -2.956801955179400 -0.522819483208083 80.000000000000000
3.043692564143811 -2.957795207686756 -0.521113312400411 77.000000000000000
3.033349388899476 -2.968401657542699 -0.521113312400411 80.000000000000000
3.036586085252162 -2.993435419739067 -0.523550699268514 77.000000000000000
3.033162583329497 -3.011009436646207 -0.524769392702565 83.000000000000000
3.024037637108351 -3.022982233030962 -0.525013131389375 76.000000000000000
3.005072977829000 -3.025069761710860 -0.523550699268514 77.000000000000000
3.000071547016646 -3.041193770719072 -0.524525654015755 80.000000000000000
2.994994097534497 -3.057319653867296 -0.525500608762996 76.000000000000000
2.993993111925826 -3.077715753170756 -0.527206779570668 83.000000000000000
2.984610848834676 -3.089575704171735 -0.527450518257478 75.000000000000000
2.971059597499408 -3.097110075804392 -0.526963040883858 80.000000000000000
2.960230565118406 -3.107462140538674 -0.526963040883858 76.000000000000000
2.956731750513840 -3.124470740947383 -0.528181734317909 83.000000000000000
2.949885481571899 -3.139112412216772 -0.528912950378340 77.000000000000000
2.953807662947443 -3.165354960939710 -0.531594075933253 83.000000000000000
2.925200110002580 -3.156717731429377 -0.528425473004720 77.000000000000000
2.920884143756084 -3.174213111262643 -0.529644166438771 86.000000000000000
2.915142533619077 -3.190251299963176 -0.530619121186012 80.000000000000000
2.913886630854071 -3.210189789721746 -0.532325291993684 80.000000000000000
2.903992283180099 -3.221816110020941 -0.532569030680494 78.000000000000000
2.892728354101302 -3.231933306387743 -0.532569030680494 83.000000000000000
2.884066641818924 -3.244978638568899 -0.533056508054115 80.000000000000000
2.879289704687428 -3.262467901076693 -0.534275201488167 80.000000000000000
2.870500707377655 -3.275484478094950 -0.534762678861787 76.000000000000000
2.870777742680763 -3.298961814719465 -0.536956327043080 83.000000000000000
2.851457406102169 -3.299950446550088 -0.535493894922218 80.000000000000000
2.839921057351436 -3.309883785952754 -0.535493894922218 80.000000000000000
2.837361689371731 -3.330354145292268 -0.537200065729890 80.000000000000000
2.832713992701923 -3.347321417989478 -0.538418759163942 80.000000000000000
2.826120618805107 -3.363268153055558 -0.539393713911183 80.000000000000000
2.812503167079142 -3.372079364336692 -0.539149975224372 76.000000000000000
2.803247571037439 -3.384934042965423 -0.539637452597993 80.000000000000000
2.797718876169816 -3.402365018516160 -0.540856146032044 80.000000000000000
2.790847128454717 -3.418260868310721 -0.541831100779286 80.000000000000000
2.786998436538934 -3.436747859799786 -0.543293532900147 72.000000000000000
2.772495076110090 -3.443362983919795 -0.542806055526527 75.000000000000000
2.760458605248362 -3.453019819635270 -0.542806055526527 72.000000000000000
2.755793227850289 -3.471963637293528 -0.544268487647389 71.000000000000000
2.747343083423908 -3.486239421629158 -0.544999703707820 70.000000000000000
2.741273282236277 -3.503625301701270 -0.546218397141871 71.000000000000000
2.725373331385933 -3.508469743327733 -0.545487181081440 68.000000000000000
2.716746759122368 -3.522677463155246 -0.546218397141871 72.000000000000000
2.711674555228590 -3.541596083093597 -0.547680829262733 72.000000000000000
2.708905866460250 -3.563682794199063 -0.549630738757215 71.000000000000000
2.701232847981495 -3.579455052276289 -0.550605693504456 72.000000000000000
2.688721761302639 -3.588862307274841 -0.550605693504456 71.000000000000000
2.673808565975411 -3.595040152876953 -0.550118216130836 72.000000000000000
2.671855202217650 -3.618724275614618 -0.552311864312128 77.000000000000000
2.666248368207148 -3.637635175171208 -0.553774296432990 77.000000000000000
2.655870265891033 -3.650130273956348 -0.554261773806611 73.000000000000000
2.640788115588281 -3.656160302445428 -0.553774296432990 70.000000000000000
2.633793117801290 -3.673422463292372 -0.554992989867042 75.000000000000000
2.627860770307917 -3.692297541533854 -0.556455421987903 75.000000000000000
2.622974061484137 -3.712797154317660 -0.558161592795575 77.000000000000000
2.609998000787388 -3.721930422806658 -0.558161592795575 72.000000000000000
2.600392308575246 -3.735906137700966 -0.558892808856006 71.000000000000000
2.589592445491407 -3.748226869018402 -0.559380286229627 75.000000000000000
2.583228844573672 -3.767066256629395 -0.560842718350489 72.000000000000000
2.583012016261764 -3.793661266006418 -0.563523843905402 77.000000000000000
2.575311356922068 -3.810878282158537 -0.564742537339453 71.000000000000000
2.555358796045797 -3.809952879831494 -0.563280105218592 75.000000000000000
2.546443913604084 -3.825459400146820 -0.564255059965833 72.000000000000000
2.540734460739734 -3.845918912986975 -0.565961230773505 70.000000000000000
2.532736282768792 -3.863064826730510 -0.567179924207556 71.000000000000000
2.526136675862580 -3.883970404851236 -0.568886095015228 61.000000000000000
2.510410688101367 -3.889428902619191 -0.568398617641608 68.000000000000000
2.494677399326190 -3.894824978102434 -0.567911140267987 70.000000000000000
2.493844750625228 -3.923613209241501 -0.570836004509711 60.000000000000000
2.488605439572889 -3.945726709092586 -0.572785914004193 60.000000000000000
2.480082689959610 -3.962803119207712 -0.574004607438245 64.000000000000000
2.461690286014393 -3.962574571217651 -0.572785914004193 60.000000000000000
2.452009863844522 -3.977902725444499 -0.573760868751434 60.000000000000000
2.448466757973884 -4.003372341578766 -0.576198255619537 63.000000000000000
2.436537089350556 -4.015288853567233 -0.576685732993158 61.000000000000000
2.435816745432319 -4.045878116278876 -0.579854335921692 28.000000000000000
2.417607395606554 -4.047539146538250 -0.578879381174450 12.000000000000000
2.404171979285451 -4.055533966824808 -0.578879381174450 1.000000000000000
3.165870635208920 -5.383172108889696 -0.766801908705188 35.000000000000000
3.144118982878997 -5.391309860676988 -0.766314431331567 30.000000000000000
3.128262782454624 -5.407406858996856 -0.767045647391998 24.000000000000000
3.102407234545086 -5.403978336641752 -0.765095737897516 21.000000000000000
3.084507256141536 -5.416499835908041 -0.765339476584326 15.000000000000000
3.062652452069647 -5.422048521156039 -0.764608260523895 9.000000000000000
3.057290959550214 -5.456951561388668 -0.768020602139240 7.000000000000000
3.045929832112834 -5.479205065778594 -0.769726772946911 7.000000000000000
3.031577530634334 -5.498495863744891 -0.770945466380963 7.000000000000000
3.014249598486873 -5.517063913121452 -0.771920421128204 5.000000000000000
3.004429901987061 -5.545005586042378 -0.774357807996307 2.000000000000000
3.049047730854761 -5.669806110480314 -0.790444561325787 0.000000000000000
nan nan nan nan
nan nan nan nan
nan nan nan nan
nan nan nan nan
nan nan nan nan
nan nan nan nan
nan nan nan nan
2.230200534662293 -4.440050280205544 -0.610077933086168 1.000000000000000
nan nan nan nan
nan nan nan nan
nan nan nan nan
nan nan nan nan
nan nan nan nan
2.166544180446664 -4.546337754835567 -0.618365048437718 1.000000000000000
2.162529356854973 -4.579002474115866 -0.621777390053062 1.000000000000000
2.151581165303168 -4.597310802324471 -0.623239822173924 1.000000000000000
2.137190780447022 -4.608394929232018 -0.623727299547545 1.000000000000000
2.123600054779242 -4.623412798011942 -0.624702254294786 1.000000000000000
2.107448394654449 -4.630797378135584 -0.624702254294786 1.000000000000000
2.104326201037472 -4.667079887155412 -0.628602073283751 1.000000000000000
2.079925984243260 -4.656272080275776 -0.626164686415648 1.000000000000000
